# .PCD v0.7 - Point Cloud Data file format
VERSION 0.7
FIELDS x y z
SIZE 4 4 4
TYPE F F F
COUNT 1 1 1
WIDTH 1365
HEIGHT 1
VIEWPOINT 0 0 0 1 0 0 0
POINTS 1365
DATA ascii
-0.11677334 0.025520002 0.81200004
-0.11522667 0.025520002 0.81200004
-0.11368001 0.025520002 0.81200004
-0.11240953 0.025582859 0.81400001
-0.11058667 0.025520002 0.81200004
-0.10877144 0.025457144 0.81000006
-0.10722858 0.025457144 0.81000006
-0.17090668 0.027066668 0.81200004
-0.16936001 0.027066668 0.81200004
-0.16781335 0.027066668 0.81200004
-0.16626668 0.027066668 0.81200004
-0.16390859 0.026933335 0.80800003
-0.16196764 0.026866669 0.80600005
-0.1600343 0.026800001 0.80400002
-0.15771429 0.026666669 0.80000001
-0.15580001 0.026600001 0.79800004
-0.15428001 0.026600001 0.79800004
-0.15276001 0.026600001 0.79800004
-0.15124001 0.026600001 0.79800004
-0.14972001 0.026600001 0.79800004
-0.14820001 0.026600001 0.79800004
-0.14668001 0.026600001 0.79800004
-0.14516 0.026600001 0.79800004
-0.14364001 0.026600001 0.79800004
-0.14212 0.026600001 0.79800004
-0.14060001 0.026600001 0.79800004
-0.13908 0.026600001 0.79800004
-0.13756001 0.026600001 0.79800004
-0.13604 0.026600001 0.79800004
-0.13452001 0.026600001 0.79800004
-0.133 0.026600001 0.79800004
-0.13180953 0.026666669 0.80000001
-0.13028572 0.026666669 0.80000001
-0.12908381 0.026733335 0.80200005
-0.1275562 0.026733335 0.80200005
-0.12602858 0.026733335 0.80200005
-0.12481143 0.026800001 0.80400002
-0.12358668 0.026866669 0.80600005
-0.12235429 0.026933335 0.80800003
-0.12111429 0.027000003 0.81000006
-0.11957144 0.027000003 0.81000006
-0.11832001 0.027066668 0.81200004
-0.11677334 0.027066668 0.81200004
-0.11551049 0.027133334 0.81400001
-0.11396001 0.027133334 0.81400001
-0.11240953 0.027133334 0.81400001
-0.11058667 0.027066668 0.81200004
-0.17090668 0.028613335 0.81200004
-0.16936001 0.028613335 0.81200004
-0.16781335 0.028613335 0.81200004
-0.16626668 0.028613335 0.81200004
-0.1643143 0.028542859 0.81000006
-0.16196764 0.028401908 0.80600005
-0.1592381 0.028190479 0.80000001
-0.15771429 0.028190479 0.80000001
-0.15580001 0.028120002 0.79800004
-0.15428001 0.028120002 0.79800004
-0.15276001 0.028120002 0.79800004
-0.15124001 0.028120002 0.79800004
-0.14953239 0.028084764 0.79700005
-0.14801429 0.028084764 0.79700005
-0.14668001 0.028120002 0.79800004
-0.14516 0.028120002 0.79800004
-0.14364001 0.028120002 0.79800004
-0.14194192 0.028084764 0.79700005
-0.14042382 0.028084764 0.79700005
-0.13908 0.028120002 0.79800004
-0.13756001 0.028120002 0.79800004
-0.13604 0.028120002 0.79800004
-0.13452001 0.028120002 0.79800004
-0.133 0.028120002 0.79800004
-0.13148001 0.028120002 0.79800004
-0.13028572 0.028190479 0.80000001
-0.12908381 0.028260954 0.80200005
-0.1278743 0.028331431 0.80400002
-0.12634286 0.028331431 0.80400002
-0.12512191 0.028401908 0.80600005
-0.12389334 0.028472383 0.80800003
-0.12265715 0.028542859 0.81000006
-0.12141334 0.028613335 0.81200004
-0.11986668 0.028613335 0.81200004
-0.11861144 0.028683811 0.81400001
-0.11706096 0.028683811 0.81400001
-0.11565239 0.028719049 0.81500006
-0.11410001 0.028719049 0.81500006
-0.11310001 0.028860003 0.81900007
-0.11085905 0.028683811 0.81400001
-0.16998573 0.030271431 0.81500006
-0.16843334 0.030271431 0.81500006
-0.16667621 0.030234288 0.81400001
-0.16472001 0.030160002 0.81200004
-0.16236953 0.03001143 0.80800003
-0.1592381 0.029714288 0.80000001
-0.15771429 0.029714288 0.80000001
-0.15580001 0.029640002 0.79800004
-0.15408668 0.029602859 0.79700005
-0.15256858 0.029602859 0.79700005
-0.15105049 0.029602859 0.79700005
-0.14953239 0.029602859 0.79700005
-0.14801429 0.029602859 0.79700005
-0.14649621 0.029602859 0.79700005
-0.14497811 0.029602859 0.79700005
-0.14346001 0.029602859 0.79700005
-0.14194192 0.029602859 0.79700005
-0.14060001 0.029640002 0.79800004
-0.13908 0.029640002 0.79800004
-0.13756001 0.029640002 0.79800004
-0.13604 0.029640002 0.79800004
-0.13485715 0.029714288 0.80000001
-0.13333334 0.029714288 0.80000001
-0.13213906 0.029788574 0.80200005
-0.13061143 0.029788574 0.80200005
-0.12908381 0.029788574 0.80200005
-0.1278743 0.029862858 0.80400002
-0.12665716 0.029937144 0.80600005
-0.12512191 0.029937144 0.80600005
-0.12389334 0.03001143 0.80800003
-0.12265715 0.030085716 0.81000006
-0.12141334 0.030160002 0.81200004
-0.12016191 0.030234288 0.81400001
-0.11861144 0.030234288 0.81400001
-0.11706096 0.030234288 0.81400001
-0.1159362 0.030345716 0.81700003
-0.11466001 0.030420002 0.81900007
-0.11365239 0.030568574 0.82300001
-0.11126763 0.030345716 0.81700003
-0.17050001 0.032214288 0.82500005
-0.16729049 0.031901907 0.81700003
-0.16532858 0.03182381 0.81500006
-0.16357525 0.031784765 0.81400001
-0.16162668 0.031706668 0.81200004
-0.15771429 0.031238098 0.80000001
-0.15580001 0.031160003 0.79800004
-0.15408668 0.031120954 0.79700005
-0.15256858 0.031120954 0.79700005
-0.15105049 0.031120954 0.79700005
-0.14953239 0.031120954 0.79700005
-0.14801429 0.031120954 0.79700005
-0.14649621 0.031120954 0.79700005
-0.14497811 0.031120954 0.79700005
-0.14346001 0.031120954 0.79700005
-0.14194192 0.031120954 0.79700005
-0.14060001 0.031160003 0.79800004
-0.13908 0.031160003 0.79800004
-0.13756001 0.031160003 0.79800004
-0.13604 0.031160003 0.79800004
-0.13485715 0.031238098 0.80000001
-0.13333334 0.031238098 0.80000001
-0.13213906 0.031316191 0.80200005
-0.13061143 0.031316191 0.80200005
-0.12940572 0.031394288 0.80400002
-0.1278743 0.031394288 0.80400002
-0.12665716 0.031472381 0.80600005
-0.12543239 0.031550478 0.80800003
-0.12389334 0.031550478 0.80800003
-0.12296001 0.031706668 0.81200004
-0.12171239 0.031784765 0.81400001
-0.12016191 0.031784765 0.81400001
-0.11875715 0.03182381 0.81500006
-0.11720477 0.03182381 0.81500006
-0.11622 0.03198 0.81900007
-0.11494001 0.032058097 0.82100004
-0.16926001 0.033540003 0.81900007
-0.16770001 0.033540003 0.81900007
-0.16573429 0.033458099 0.81700003
-0.1637762 0.033376191 0.81500006
-0.16162668 0.033253334 0.81200004
-0.15771429 0.032761905 0.80000001
-0.15580001 0.032680001 0.79800004
-0.15428001 0.032680001 0.79800004
-0.15256858 0.032639049 0.79700005
-0.15105049 0.032639049 0.79700005
-0.14953239 0.032639049 0.79700005
-0.14801429 0.032639049 0.79700005
-0.14649621 0.032639049 0.79700005
-0.14497811 0.032639049 0.79700005
-0.14346001 0.032639049 0.79700005
-0.14194192 0.032639049 0.79700005
-0.14042382 0.032639049 0.79700005
-0.13908 0.032680001 0.79800004
-0.13756001 0.032680001 0.79800004
-0.13604 0.032680001 0.79800004
-0.13485715 0.032761905 0.80000001
-0.13366668 0.032843813 0.80200005
-0.13213906 0.032843813 0.80200005
-0.13093714 0.032925718 0.80400002
-0.12940572 0.032925718 0.80400002
-0.12819239 0.033007622 0.80600005
-0.12665716 0.033007622 0.80600005
-0.12543239 0.033089526 0.80800003
-0.12389334 0.033089526 0.80800003
-0.12296001 0.033253334 0.81200004
-0.12171239 0.033335239 0.81400001
-0.12030953 0.033376191 0.81500006
-0.11904858 0.033458099 0.81700003
-0.11749239 0.033458099 0.81700003
-0.11650382 0.033621907 0.82100004
-0.16770001 0.035100002 0.81900007
-0.16573429 0.035014287 0.81700003
-0.1637762 0.034928575 0.81500006
-0.15732001 0.034200002 0.79800004
-0.15580001 0.034200002 0.79800004
-0.15428001 0.034200002 0.79800004
-0.15256858 0.034157146 0.79700005
-0.15105049 0.034157146 0.79700005
-0.14953239 0.034157146 0.79700005
-0.14764287 0.034071431 0.79500002
-0.14612858 0.034071431 0.79500002
-0.14461429 0.034071431 0.79500002
-0.14346001 0.034157146 0.79700005
-0.14194192 0.034157146 0.79700005
-0.14042382 0.034157146 0.79700005
-0.13908 0.034200002 0.79800004
-0.13756001 0.034200002 0.79800004
-0.13638096 0.034285717 0.80000001
-0.13485715 0.034285717 0.80000001
-0.13366668 0.034371432 0.80200005
-0.13246858 0.034457143 0.80400002
-0.13093714 0.034457143 0.80400002
-0.12972763 0.034542859 0.80600005
-0.12819239 0.034542859 0.80600005
-0.12697144 0.034628574 0.80800003
-0.12543239 0.034628574 0.80800003
-0.12420001 0.034714289 0.81000006
-0.12296001 0.0348 0.81200004
-0.12171239 0.034885716 0.81400001
-0.12030953 0.034928575 0.81500006
-0.11934001 0.035100002 0.81900007
-0.11778001 0.035100002 0.81900007
-0.15732001 0.035720002 0.79800004
-0.15560476 0.035675239 0.79700005
-0.15408668 0.035675239 0.79700005
-0.15256858 0.035675239 0.79700005
-0.15105049 0.035675239 0.79700005
-0.14953239 0.035675239 0.79700005
-0.14764287 0.035585716 0.79500002
-0.14612858 0.035585716 0.79500002
-0.14461429 0.035585716 0.79500002
-0.14346001 0.035675239 0.79700005
-0.14194192 0.035675239 0.79700005
-0.14042382 0.035675239 0.79700005
-0.13908 0.035720002 0.79800004
-0.13790478 0.035809524 0.80000001
-0.13638096 0.035809524 0.80000001
-0.1351943 0.035899051 0.80200005
-0.13366668 0.035899051 0.80200005
-0.13246858 0.035988573 0.80400002
-0.13093714 0.035988573 0.80400002
-0.12972763 0.036078099 0.80600005
-0.12851049 0.036167622 0.80800003
-0.12697144 0.036167622 0.80800003
-0.12574287 0.036257144 0.81000006
-0.12450667 0.03634667 0.81200004
-0.12296001 0.03634667 0.81200004
-0.12186191 0.036480956 0.81500006
-0.12060477 0.036570478 0.81700003
-0.15580001 0.037240002 0.79800004
-0.15428001 0.037240002 0.79800004
-0.15256858 0.037193336 0.79700005
-0.15105049 0.037193336 0.79700005
-0.14953239 0.037193336 0.79700005
-0.14801429 0.037193336 0.79700005
-0.14612858 0.037100002 0.79500002
-0.14461429 0.037100002 0.79500002
-0.14346001 0.037193336 0.79700005
-0.14194192 0.037193336 0.79700005
-0.14060001 0.037240002 0.79800004
-0.13908 0.037240002 0.79800004
-0.13824953 0.037426669 0.80200005
-0.13672191 0.037426669 0.80200005
-0.13553144 0.037520003 0.80400002
-0.134 0.037520003 0.80400002
-0.13279811 0.037613336 0.80600005
-0.13126287 0.037613336 0.80600005
-0.13004953 0.037706669 0.80800003
-0.12882859 0.037800003 0.81000006
-0.12728572 0.037800003 0.81000006
-0.12605335 0.037893336 0.81200004
-0.12481334 0.03798667 0.81400001
-0.12326287 0.03798667 0.81400001
-0.12186191 0.038033336 0.81500006
-0.12090001 0.038220003 0.81900007
-0.15658097 0.038954288 0.80200005
-0.15408668 0.038711432 0.79700005
-0.15256858 0.038711432 0.79700005
-0.15105049 0.038711432 0.79700005
-0.14953239 0.038711432 0.79700005
-0.14801429 0.038711432 0.79700005
-0.14612858 0.038614288 0.79500002
-0.14497811 0.038711432 0.79700005
-0.14346001 0.038711432 0.79700005
-0.14194192 0.038711432 0.79700005
-0.14060001 0.038760003 0.79800004
-0.13942859 0.038857147 0.80000001
-0.13824953 0.038954288 0.80200005
-0.13706286 0.039051432 0.80400002
-0.13553144 0.039051432 0.80400002
-0.13433334 0.039148573 0.80600005
-0.13279811 0.039148573 0.80600005
-0.13126287 0.039148573 0.80600005
-0.13037144 0.039342858 0.81000006
-0.12882859 0.039342858 0.81000006
-0.12760001 0.039440002 0.81200004
-0.12636381 0.039537147 0.81400001
-0.12481334 0.039537147 0.81400001
-0.12326287 0.039537147 0.81400001
-0.12216096 0.039682861 0.81700003
-0.15658097 0.040481906 0.80200005
-0.15505335 0.040481906 0.80200005
-0.15276001 0.040280003 0.79800004
-0.15124001 0.040280003 0.79800004
-0.14953239 0.040229525 0.79700005
-0.14801429 0.040229525 0.79700005
-0.14649621 0.040229525 0.79700005
-0.14497811 0.040229525 0.79700005
-0.14346001 0.040229525 0.79700005
-0.14212 0.040280003 0.79800004
-0.14060001 0.040280003 0.79800004
-0.13942859 0.040380955 0.80000001
-0.1385943 0.040582858 0.80400002
-0.13706286 0.040582858 0.80400002
-0.13586858 0.040683813 0.80600005
-0.13433334 0.040683813 0.80600005
-0.13312763 0.040784765 0.80800003
-0.13158858 0.040784765 0.80800003
-0.13037144 0.040885717 0.81000006
-0.12914668 0.040986668 0.81200004
-0.12760001 0.040986668 0.81200004
-0.12636381 0.04108762 0.81400001
-0.12496667 0.041138098 0.81500006
-0.12341429 0.041138098 0.81500006
-0.15582667 0.04221905 0.80600005
-0.15352573 0.042009525 0.80200005
-0.15161906 0.041904766 0.80000001
-0.14972001 0.041800003 0.79800004
-0.14820001 0.041800003 0.79800004
-0.14668001 0.041800003 0.79800004
-0.14516 0.041800003 0.79800004
-0.14364001 0.041800003 0.79800004
-0.1424762 0.041904766 0.80000001
-0.14095239 0.041904766 0.80000001
-0.14012572 0.042114288 0.80400002
-0.13893905 0.04221905 0.80600005
-0.13740382 0.04221905 0.80600005
-0.13586858 0.04221905 0.80600005
-0.13466668 0.042323813 0.80800003
-0.13345715 0.042428575 0.81000006
-0.13224001 0.042533334 0.81200004
-0.13101524 0.042638097 0.81400001
-0.12946478 0.042638097 0.81400001
-0.12807144 0.042690478 0.81500006
-0.15276001 0.043320004 0.79800004
-0.15124001 0.043320004 0.79800004
-0.14972001 0.043320004 0.79800004
-0.14820001 0.043320004 0.79800004
-0.14668001 0.043320004 0.79800004
-0.14552382 0.043428574 0.80000001
-0.14400001 0.043428574 0.80000001
-0.14283238 0.043537147 0.80200005
-0.14130478 0.043537147 0.80200005
-0.14012572 0.043645717 0.80400002
-0.1385943 0.043645717 0.80400002
-0.13774477 0.043862861 0.80800003
-0.13620572 0.043862861 0.80800003
-0.13533334 0.044080004 0.81200004
-0.13378668 0.044080004 0.81200004
-0.15276001 0.044840004 0.79800004
-0.15237716 0.045177147 0.80400002
-0.15084572 0.045177147 0.80400002
-0.1493143 0.045177147 0.80400002
-0.14778286 0.045177147 0.80400002
-0.14625144 0.045177147 0.80400002
-0.14472 0.045177147 0.80400002
-0.14318858 0.045177147 0.80400002
-0.14200953 0.045289528 0.80600005
-0.14047429 0.045289528 0.80600005
-0.13928382 0.045401908 0.80800003
-0.13808572 0.045514289 0.81000006
-0.13688001 0.04562667 0.81200004
-0.15467429 0.046940956 0.80800003
-0.1527562 0.046824764 0.80600005
-0.15122096 0.046824764 0.80600005
-0.14968573 0.046824764 0.80600005
-0.14778286 0.046708573 0.80400002
-0.14625144 0.046708573 0.80400002
-0.14508002 0.046824764 0.80600005
-0.14354478 0.046824764 0.80600005
-0.14200953 0.046824764 0.80600005
-0.14082287 0.046940956 0.80800003
-0.13962857 0.047057144 0.81000006
-0.13842668 0.047173336 0.81200004
-0.15467429 0.048480004 0.80800003
-0.1527562 0.048360005 0.80600005
-0.15122096 0.048360005 0.80600005
-0.14968573 0.048360005 0.80600005
-0.14815049 0.048360005 0.80600005
-0.14661525 0.048360005 0.80600005
-0.14508002 0.048360005 0.80600005
-0.14354478 0.048360005 0.80600005
-0.14236191 0.048480004 0.80800003
-0.14082287 0.048480004 0.80800003
-0.13962857 0.048600003 0.81000006
-0.1527562 0.049895242 0.80600005
-0.15122096 0.049895242 0.80600005
-0.14968573 0.049895242 0.80600005
-0.14815049 0.049895242 0.80600005
-0.14661525 0.049895242 0.80600005
-0.14508002 0.049895242 0.80600005
-0.14390096 0.050019052 0.80800003
-0.14271429 0.050142862 0.81000006
0.018874288 0.0454381 0.73400003
0.020272382 0.0454381 0.73400003
0.021670477 0.0454381 0.73400003
0.023068573 0.0454381 0.73400003
-0.15122096 0.051430479 0.80600005
-0.14968573 0.051430479 0.80600005
-0.14815049 0.051430479 0.80600005
-0.14390096 0.0515581 0.80800003
0.01188381 0.046836194 0.73400003
0.013281906 0.046836194 0.73400003
0.014680001 0.046836194 0.73400003
0.016078096 0.046836194 0.73400003
0.017476192 0.046836194 0.73400003
0.018874288 0.046836194 0.73400003
0.020272382 0.046836194 0.73400003
0.02161143 0.046708573 0.73200005
0.023068573 0.046836194 0.73400003
0.024400001 0.046708573 0.73200005
0.025794288 0.046708573 0.73200005
0.0090876194 0.048234288 0.73400003
0.010485715 0.048234288 0.73400003
0.01188381 0.048234288 0.73400003
0.013281906 0.048234288 0.73400003
0.014680001 0.048234288 0.73400003
0.016078096 0.048234288 0.73400003
0.017476192 0.048234288 0.73400003
0.018822858 0.048102859 0.73200005
0.020217145 0.048102859 0.73200005
0.02161143 0.048102859 0.73200005
0.023005717 0.048102859 0.73200005
0.024400001 0.048102859 0.73200005
0.025794288 0.048102859 0.73200005
0.027188573 0.048102859 0.73200005
0.02858286 0.048102859 0.73200005
0.0076895244 0.049632385 0.73400003
0.0090876194 0.049632385 0.73400003
0.010485715 0.049632385 0.73400003
0.01188381 0.049632385 0.73400003
0.013281906 0.049632385 0.73400003
0.014680001 0.049632385 0.73400003
0.016034286 0.049497146 0.73200005
0.017428573 0.049497146 0.73200005
0.018822858 0.049497146 0.73200005
0.020217145 0.049497146 0.73200005
0.02161143 0.049497146 0.73200005
0.023005717 0.049497146 0.73200005
0.024400001 0.049497146 0.73200005
0.025794288 0.049497146 0.73200005
0.027188573 0.049497146 0.73200005
0.02858286 0.049497146 0.73200005
0.029977145 0.049497146 0.73200005
0.0076895244 0.051030479 0.73400003
0.0090876194 0.051030479 0.73400003
0.010485715 0.051030479 0.73400003
0.01188381 0.051030479 0.73400003
0.013245715 0.050891433 0.73200005
0.014640001 0.050891433 0.73200005
0.016034286 0.050891433 0.73200005
0.017428573 0.050891433 0.73200005
0.018822858 0.050891433 0.73200005
0.020217145 0.050891433 0.73200005
0.021581907 0.050821908 0.73100001
0.023005717 0.050891433 0.73200005
0.024400001 0.050891433 0.73200005
0.025794288 0.050891433 0.73200005
0.027188573 0.050891433 0.73200005
0.02858286 0.050891433 0.73200005
0.029977145 0.050891433 0.73200005
0.007668572 0.052285716 0.73200005
0.0090628574 0.052285716 0.73200005
0.010457143 0.052285716 0.73200005
0.011851429 0.052285716 0.73200005
0.013245715 0.052285716 0.73200005
0.014640001 0.052285716 0.73200005
0.016012382 0.052214291 0.73100001
0.017404763 0.052214291 0.73100001
0.018797144 0.052214291 0.73100001
0.020189526 0.052214291 0.73100001
0.021581907 0.052214291 0.73100001
0.022974288 0.052214291 0.73100001
0.024366667 0.052214291 0.73100001
0.025794288 0.052285716 0.73200005
0.027188573 0.052285716 0.73200005
0.02858286 0.052285716 0.73200005
0.029977145 0.052285716 0.73200005
0.03137143 0.052285716 0.73200005
0.007668572 0.053680003 0.73200005
0.0090628574 0.053680003 0.73200005
0.010457143 0.053680003 0.73200005
0.011835239 0.05360667 0.73100001
0.013245715 0.053680003 0.73200005
0.01462 0.05360667 0.73100001
0.016012382 0.05360667 0.73100001
0.017404763 0.05360667 0.73100001
0.018797144 0.05360667 0.73100001
0.020189526 0.05360667 0.73100001
0.021581907 0.05360667 0.73100001
0.022974288 0.05360667 0.73100001
0.024366667 0.05360667 0.73100001
0.025759049 0.05360667 0.73100001
0.02715143 0.05360667 0.73100001
0.02858286 0.053680003 0.73200005
0.029936193 0.05360667 0.73100001
0.03137143 0.053680003 0.73200005
0.032765716 0.053680003 0.73200005
0.006291429 0.055224765 0.73400003
0.0076895244 0.055224765 0.73400003
0.0090628574 0.055074289 0.73200005
0.010442858 0.05499905 0.73100001
0.011835239 0.05499905 0.73100001
0.01322762 0.05499905 0.73100001
0.01462 0.05499905 0.73100001
0.015968572 0.054848574 0.72900003
0.017357145 0.054848574 0.72900003
0.018745715 0.054848574 0.72900003
0.020134287 0.054848574 0.72900003
0.021493334 0.054773338 0.72800004
0.022880001 0.054773338 0.72800004
0.024300002 0.054848574 0.72900003
0.025688574 0.054848574 0.72900003
0.02715143 0.05499905 0.73100001
0.028543811 0.05499905 0.73100001
0.029936193 0.05499905 0.73100001
0.031328574 0.05499905 0.73100001
0.032720953 0.05499905 0.73100001
0.034113336 0.05499905 0.73100001
0.035408575 0.054848574 0.72900003
0.036797144 0.054848574 0.72900003
0.038185716 0.054848574 0.72900003
0.0049066669 0.056777146 0.73600006
0.0063085719 0.056777146 0.73600006
0.0077104769 0.056777146 0.73600006
0.0090628574 0.056468576 0.73200005
0.010457143 0.056468576 0.73200005
0.011835239 0.056391433 0.73100001
0.01322762 0.056391433 0.73100001
0.01462 0.056391433 0.73100001
0.015946668 0.056160003 0.72800004
0.017333334 0.056160003 0.72800004
0.018720001 0.056160003 0.72800004
0.020106668 0.056160003 0.72800004
0.021493334 0.056160003 0.72800004
0.022880001 0.056160003 0.72800004
0.024300002 0.056237146 0.72900003
0.025688574 0.056237146 0.72900003
0.02715143 0.056391433 0.73100001
0.028543811 0.056391433 0.73100001
0.029936193 0.056391433 0.73100001
0.031328574 0.056391433 0.73100001
0.032720953 0.056391433 0.73100001
0.034113336 0.056391433 0.73100001
0.035505716 0.056391433 0.73100001
0.036898099 0.056391433 0.73100001
0.038290478 0.056391433 0.73100001
-0.0021514287 0.05952286 0.75300002
-0.00072000007 0.059760004 0.75600004
0.00072000007 0.059760004 0.75600004
0.0021600001 0.059760004 0.75600004
0.0035857146 0.05952286 0.75300002
0.0049066669 0.058179051 0.73600006
0.0063085719 0.058179051 0.73600006
0.0077104769 0.058179051 0.73600006
0.0090628574 0.057862859 0.73200005
0.010442858 0.057783812 0.73100001
0.011835239 0.057783812 0.73100001
0.01322762 0.057783812 0.73100001
0.014580001 0.057625718 0.72900003
0.015946668 0.057546671 0.72800004
0.017333334 0.057546671 0.72800004
0.018720001 0.057546671 0.72800004
0.020106668 0.057546671 0.72800004
0.021493334 0.057546671 0.72800004
0.022880001 0.057546671 0.72800004
0.024300002 0.057625718 0.72900003
0.025688574 0.057625718 0.72900003
0.02715143 0.057783812 0.73100001
0.028543811 0.057783812 0.73100001
0.029936193 0.057783812 0.73100001
0.031328574 0.057783812 0.73100001
0.032720953 0.057783812 0.73100001
0.034113336 0.057783812 0.73100001
0.035505716 0.057783812 0.73100001
0.036898099 0.057783812 0.73100001
0.038290478 0.057783812 0.73100001
0.04082286 0.059443813 0.75200003
0.042255241 0.059443813 0.75200003
0.043687623 0.059443813 0.75200003
-0.0035857146 0.060957149 0.75300002
-0.0021514287 0.060957149 0.75300002
-0.00071714289 0.060957149 0.75300002
0.00071714289 0.060957149 0.75300002
0.0021514287 0.060957149 0.75300002
0.0035857146 0.060957149 0.75300002
0.0049066669 0.059580956 0.73600006
0.0063085719 0.059580956 0.73600006
0.0076895244 0.059419051 0.73400003
0.0090628574 0.059257146 0.73200005
0.010442858 0.059176195 0.73100001
0.011835239 0.059176195 0.73100001
0.01322762 0.059176195 0.73100001
0.014580001 0.059014291 0.72900003
0.015946668 0.058933336 0.72800004
0.017333334 0.058933336 0.72800004
0.018720001 0.058933336 0.72800004
0.020106668 0.058933336 0.72800004
0.021493334 0.058933336 0.72800004
0.022880001 0.058933336 0.72800004
0.024300002 0.059014291 0.72900003
0.025688574 0.059014291 0.72900003
0.02715143 0.059176195 0.73100001
0.028543811 0.059176195 0.73100001
0.029936193 0.059176195 0.73100001
0.031328574 0.059176195 0.73100001
0.032720953 0.059176195 0.73100001
0.034113336 0.059176195 0.73100001
0.035505716 0.059176195 0.73100001
0.036898099 0.059176195 0.73100001
0.039390478 0.060876194 0.75200003
0.04082286 0.060876194 0.75200003
0.042255241 0.060876194 0.75200003
0.043687623 0.060876194 0.75200003
-0.006411429 0.061977148 0.74800003
-0.0049866671 0.061977148 0.74800003
-0.0035714288 0.06214286 0.75000006
-0.0021485717 0.062308576 0.75200003
-0.00071619055 0.062308576 0.75200003
0.00071619055 0.062308576 0.75200003
0.0021485717 0.062308576 0.75200003
0.0035809525 0.062308576 0.75200003
0.0049133338 0.061065719 0.73700005
0.0063171433 0.061065719 0.73700005
0.0077104769 0.060982861 0.73600006
0.0090876194 0.060817149 0.73400003
0.010457143 0.060651433 0.73200005
0.011835239 0.060568575 0.73100001
0.01322762 0.060568575 0.73100001
0.014580001 0.060402863 0.72900003
0.015968572 0.060402863 0.72900003
0.017333334 0.060320005 0.72800004
0.018720001 0.060320005 0.72800004
0.020106668 0.060320005 0.72800004
0.021522859 0.060402863 0.72900003
0.022911429 0.060402863 0.72900003
0.024300002 0.060402863 0.72900003
0.025688574 0.060402863 0.72900003
0.02715143 0.060568575 0.73100001
0.028543811 0.060568575 0.73100001
0.029936193 0.060568575 0.73100001
0.031328574 0.060568575 0.73100001
0.032720953 0.060568575 0.73100001
0.034113336 0.060568575 0.73100001
0.035505716 0.060568575 0.73100001
0.036898099 0.060568575 0.73100001
0.039390478 0.062308576 0.75200003
0.04082286 0.062308576 0.75200003
0.042255241 0.062308576 0.75200003
0.043687623 0.062308576 0.75200003
0.045120005 0.062308576 0.75200003
-0.0078571429 0.063571431 0.75000006
-0.006411429 0.063401908 0.74800003
-0.0049866671 0.063401908 0.74800003
-0.0035714288 0.063571431 0.75000006
-0.0021485717 0.063740954 0.75200003
-0.00071619055 0.063740954 0.75200003
0.00071619055 0.063740954 0.75200003
0.0021428573 0.063571431 0.75000006
0.0035714288 0.063571431 0.75000006
0.0049333335 0.062723815 0.74000001
0.0063171433 0.062469527 0.73700005
0.0077104769 0.062384766 0.73600006
0.0090876194 0.062215243 0.73400003
0.010457143 0.062045719 0.73200005
0.011835239 0.061960958 0.73100001
0.01322762 0.061960958 0.73100001
0.014580001 0.061791431 0.72900003
0.015968572 0.061791431 0.72900003
0.017333334 0.06170667 0.72800004
0.018720001 0.06170667 0.72800004
0.020106668 0.06170667 0.72800004
0.021493334 0.06170667 0.72800004
0.022911429 0.061791431 0.72900003
0.024300002 0.061791431 0.72900003
0.025688574 0.061791431 0.72900003
0.02715143 0.061960958 0.73100001
0.028543811 0.061960958 0.73100001
0.029936193 0.061960958 0.73100001
0.031328574 0.061960958 0.73100001
0.032720953 0.061960958 0.73100001
0.034113336 0.061960958 0.73100001
0.035505716 0.061960958 0.73100001
0.037857145 0.063571431 0.75000006
0.039285716 0.063571431 0.75000006
0.04071429 0.063571431 0.75000006
0.042142861 0.063571431 0.75000006
0.043571431 0.063571431 0.75000006
0.045000002 0.063571431 0.75000006
0.046428576 0.063571431 0.75000006
0.047857147 0.063571431 0.75000006
-0.0078571429 0.065000005 0.75000006
-0.0064285719 0.065000005 0.75000006
-0.0050000004 0.065000005 0.75000006
-0.0035714288 0.065000005 0.75000006
-0.0021485717 0.065173335 0.75200003
-0.00071428576 0.065000005 0.75000006
0.00071428576 0.065000005 0.75000006
0.0021428573 0.065000005 0.75000006
0.0035619049 0.064826667 0.74800003
0.0049666669 0.064566672 0.74500006
0.0063171433 0.063873336 0.73700005
0.0077104769 0.063786671 0.73600006
0.0090876194 0.06361334 0.73400003
0.010457143 0.063440003 0.73200005
0.011851429 0.063440003 0.73200005
0.01322762 0.063353337 0.73100001
0.01462 0.063353337 0.73100001
0.016012382 0.063353337 0.73100001
0.017357145 0.063180007 0.72900003
0.018720001 0.063093334 0.72800004
0.020134287 0.063180007 0.72900003
0.021522859 0.063180007 0.72900003
0.022911429 0.063180007 0.72900003
0.024300002 0.063180007 0.72900003
0.025688574 0.063180007 0.72900003
0.02715143 0.063353337 0.73100001
0.028543811 0.063353337 0.73100001
0.029936193 0.063353337 0.73100001
0.031328574 0.063353337 0.73100001
0.032720953 0.063353337 0.73100001
0.034113336 0.063353337 0.73100001
0.036428574 0.065000005 0.75000006
0.037857145 0.065000005 0.75000006
0.039285716 0.065000005 0.75000006
0.04071429 0.065000005 0.75000006
0.042142861 0.065000005 0.75000006
0.043571431 0.065000005 0.75000006
0.045000002 0.065000005 0.75000006
0.046428576 0.065000005 0.75000006
0.047857147 0.065000005 0.75000006
0.049285717 0.065000005 0.75000006
-0.0092857145 0.066428579 0.75000006
-0.0078571429 0.066428579 0.75000006
-0.0064285719 0.066428579 0.75000006
-0.0050000004 0.066428579 0.75000006
-0.0035714288 0.066428579 0.75000006
-0.0021485717 0.066605717 0.75200003
-0.00071428576 0.066428579 0.75000006
0.00071428576 0.066428579 0.75000006
0.0021371429 0.066251434 0.74800003
0.003557143 0.066162862 0.74700004
0.0049666669 0.065985717 0.74500006
0.0063342862 0.065454289 0.73900002
0.0077104769 0.065188579 0.73600006
0.0090876194 0.065011434 0.73400003
0.010457143 0.064834289 0.73200005
0.011851429 0.064834289 0.73200005
0.01322762 0.064745717 0.73100001
0.01462 0.064745717 0.73100001
0.016012382 0.064745717 0.73100001
0.017357145 0.064568579 0.72900003
0.018745715 0.064568579 0.72900003
0.020134287 0.064568579 0.72900003
0.021522859 0.064568579 0.72900003
0.022911429 0.064568579 0.72900003
0.024366667 0.064745717 0.73100001
0.025759049 0.064745717 0.73100001
0.02715143 0.064745717 0.73100001
0.028543811 0.064745717 0.73100001
0.029936193 0.064745717 0.73100001
0.03137143 0.064834289 0.73200005
0.032720953 0.064745717 0.73100001
0.034113336 0.064745717 0.73100001
0.036428574 0.066428579 0.75000006
0.037857145 0.066428579 0.75000006
0.039285716 0.066428579 0.75000006
0.04071429 0.066428579 0.75000006
0.042142861 0.066428579 0.75000006
0.043571431 0.066428579 0.75000006
0.045000002 0.066428579 0.75000006
0.046428576 0.066428579 0.75000006
0.047857147 0.066428579 0.75000006
0.049285717 0.066428579 0.75000006
0.050714288 0.066428579 0.75000006
0.052142862 0.066428579 0.75000006
-0.0092857145 0.067857146 0.75000006
-0.0078571429 0.067857146 0.75000006
-0.0064285719 0.067857146 0.75000006
-0.0050000004 0.067857146 0.75000006
-0.0035714288 0.067857146 0.75000006
-0.0021428573 0.067857146 0.75000006
-0.00071428576 0.067857146 0.75000006
0.00071428576 0.067857146 0.75000006
0.0021371429 0.067676194 0.74800003
0.0035476193 0.067404769 0.74500006
0.0049533336 0.067223817 0.74300003
0.0063600005 0.067133337 0.74200004
0.0077104769 0.066590481 0.73600006
0.0090876194 0.066409528 0.73400003
0.010457143 0.066228576 0.73200005
0.011851429 0.066228576 0.73200005
0.01322762 0.066138096 0.73100001
0.01462 0.066138096 0.73100001
0.016012382 0.066138096 0.73100001
0.017404763 0.066138096 0.73100001
0.018745715 0.065957144 0.72900003
0.020134287 0.065957144 0.72900003
0.021522859 0.065957144 0.72900003
0.022974288 0.066138096 0.73100001
0.024366667 0.066138096 0.73100001
0.025759049 0.066138096 0.73100001
0.02715143 0.066138096 0.73100001
0.02858286 0.066228576 0.73200005
0.029977145 0.066228576 0.73200005
0.03137143 0.066228576 0.73200005
0.032765716 0.066228576 0.73200005
0.034160003 0.066228576 0.73200005
0.03633143 0.067676194 0.74800003
0.037756193 0.067676194 0.74800003
0.039285716 0.067857146 0.75000006
0.040605716 0.067676194 0.74800003
0.04203048 0.067676194 0.74800003
0.043571431 0.067857146 0.75000006
0.045000002 0.067857146 0.75000006
0.046428576 0.067857146 0.75000006
0.047857147 0.067857146 0.75000006
0.049285717 0.067857146 0.75000006
0.050849527 0.068038099 0.75200003
0.052281909 0.068038099 0.75200003
0.05371429 0.068038099 0.75200003
-0.0092857145 0.069285721 0.75000006
-0.007836191 0.069100954 0.74800003
-0.0064285719 0.069285721 0.75000006
-0.0050000004 0.069285721 0.75000006
-0.0035714288 0.069285721 0.75000006
-0.0021428573 0.069285721 0.75000006
-0.00071238098 0.069100954 0.74800003
0.00071238098 0.069100954 0.74800003
0.0021342859 0.069008574 0.74700004
0.0035476193 0.068823814 0.74500006
0.0049533336 0.068639055 0.74300003
0.0063428576 0.068361908 0.74000001
0.0077104769 0.067992382 0.73600006
0.0090876194 0.067807622 0.73400003
0.010457143 0.067622863 0.73200005
0.011851429 0.067622863 0.73200005
0.013245715 0.067622863 0.73200005
0.01462 0.067530483 0.73100001
0.016012382 0.067530483 0.73100001
0.017404763 0.067530483 0.73100001
0.018797144 0.067530483 0.73100001
0.020189526 0.067530483 0.73100001
0.021581907 0.067530483 0.73100001
0.022974288 0.067530483 0.73100001
0.024366667 0.067530483 0.73100001
0.025759049 0.067530483 0.73100001
0.02715143 0.067530483 0.73100001
0.02858286 0.067622863 0.73200005
0.029977145 0.067622863 0.73200005
0.03137143 0.067622863 0.73200005
0.032944765 0.067992382 0.73600006
0.03434667 0.067992382 0.73600006
0.036185715 0.068823814 0.74500006
0.037705716 0.069008574 0.74700004
0.039180957 0.069100954 0.74800003
0.040551431 0.069008574 0.74700004
0.041974287 0.069008574 0.74700004
0.043397147 0.069008574 0.74700004
0.044880003 0.069100954 0.74800003
0.046304766 0.069100954 0.74800003
0.047729526 0.069100954 0.74800003
0.049154289 0.069100954 0.74800003
0.050714288 0.069285721 0.75000006
0.052142862 0.069285721 0.75000006
0.053571433 0.069285721 0.75000006
-0.0092609534 0.070525721 0.74800003
-0.007836191 0.070525721 0.74800003
-0.006411429 0.070525721 0.74800003
-0.0049866671 0.070525721 0.74800003
-0.0035619049 0.070525721 0.74800003
-0.0021371429 0.070525721 0.74800003
-0.00071142864 0.070431434 0.74700004
0.00071142864 0.070431434 0.74700004
0.0021342859 0.070431434 0.74700004
0.0035476193 0.070242859 0.74500006
0.0049533336 0.070054293 0.74300003
0.0063428576 0.069771431 0.74000001
0.0077209529 0.069488578 0.73700005
0.0091123814 0.06939429 0.73600006
0.010485715 0.069205716 0.73400003
0.01188381 0.069205716 0.73400003
0.013245715 0.06901715 0.73200005
0.014640001 0.06901715 0.73200005
0.016034286 0.06901715 0.73200005
0.017404763 0.068922862 0.73100001
0.018797144 0.068922862 0.73100001
0.020189526 0.068922862 0.73100001
0.021581907 0.068922862 0.73100001
0.022974288 0.068922862 0.73100001
0.024400001 0.06901715 0.73200005
0.025794288 0.06901715 0.73200005
0.027188573 0.06901715 0.73200005
0.02858286 0.06901715 0.73200005
0.029977145 0.06901715 0.73200005
0.031457145 0.069205716 0.73400003
0.032989524 0.069488578 0.73700005
0.034533337 0.069771431 0.74000001
0.036040001 0.069960006 0.74200004
0.037503812 0.070054293 0.74300003
0.039023813 0.070242859 0.74500006
0.040442862 0.070242859 0.74500006
0.041861907 0.070242859 0.74500006
0.043397147 0.070431434 0.74700004
0.044820003 0.070431434 0.74700004
0.046304766 0.070525721 0.74800003
0.047729526 0.070525721 0.74800003
0.049154289 0.070525721 0.74800003
0.050714288 0.070714287 0.75000006
0.052142862 0.070714287 0.75000006
0.053571433 0.070714287 0.75000006
0.055000003 0.070714287 0.75000006
-0.0092609534 0.07195048 0.74800003
-0.007836191 0.07195048 0.74800003
-0.006411429 0.07195048 0.74800003
-0.0049866671 0.07195048 0.74800003
-0.003557143 0.071854293 0.74700004
-0.0021342859 0.071854293 0.74700004
-0.00070952385 0.071661912 0.74500006
0.00070952385 0.071661912 0.74500006
0.0021285715 0.071661912 0.74500006
0.0035476193 0.071661912 0.74500006
0.0049533336 0.07146953 0.74300003
0.0063600005 0.071373336 0.74200004
0.0077209529 0.070892386 0.73700005
0.0091247624 0.070892386 0.73700005
0.010514286 0.070796192 0.73600006
0.01188381 0.070603818 0.73400003
0.013281906 0.070603818 0.73400003
0.014640001 0.070411436 0.73200005
0.016034286 0.070411436 0.73200005
0.017428573 0.070411436 0.73200005
0.018822858 0.070411436 0.73200005
0.020217145 0.070411436 0.73200005
0.02161143 0.070411436 0.73200005
0.023005717 0.070411436 0.73200005
0.024400001 0.070411436 0.73200005
0.025864763 0.070603818 0.73400003
0.027262859 0.070603818 0.73400003
0.028660955 0.070603818 0.73400003
0.030059049 0.070603818 0.73400003
0.03154286 0.070796192 0.73600006
0.03307905 0.071084768 0.73900002
0.034533337 0.071180955 0.74000001
0.036040001 0.071373336 0.74200004
0.037503812 0.07146953 0.74300003
0.039023813 0.071661912 0.74500006
0.040442862 0.071661912 0.74500006
0.041861907 0.071661912 0.74500006
0.043397147 0.071854293 0.74700004
0.044820003 0.071854293 0.74700004
0.046304766 0.07195048 0.74800003
0.047729526 0.07195048 0.74800003
0.049154289 0.07195048 0.74800003
0.050714288 0.072142862 0.75000006
0.052142862 0.072142862 0.75000006
0.05371429 0.072335243 0.75200003
0.055146672 0.072335243 0.75200003
-0.007836191 0.07337524 0.74800003
-0.006411429 0.07337524 0.74800003
-0.0049866671 0.07337524 0.74800003
-0.003557143 0.073277146 0.74700004
-0.0021342859 0.073277146 0.74700004
-0.00070952385 0.073080957 0.74500006
0.00070952385 0.073080957 0.74500006
0.0021285715 0.073080957 0.74500006
0.0035380954 0.072884768 0.74300003
0.0049533336 0.072884768 0.74300003
0.0063600005 0.072786674 0.74200004
0.0077419053 0.072492383 0.73900002
0.0091495244 0.072492383 0.73900002
0.010528572 0.072296195 0.73700005
0.011932381 0.072296195 0.73700005
0.013318096 0.0721981 0.73600006
0.014720001 0.0721981 0.73600006
0.016121905 0.0721981 0.73600006
0.01752381 0.0721981 0.73600006
0.018874288 0.072001912 0.73400003
0.020272382 0.072001912 0.73400003
0.02161143 0.071805716 0.73200005
0.023005717 0.071805716 0.73200005
0.024466669 0.072001912 0.73400003
0.025864763 0.072001912 0.73400003
0.027262859 0.072001912 0.73400003
0.028660955 0.072001912 0.73400003
0.030140955 0.0721981 0.73600006
0.031585716 0.072296195 0.73700005
0.03307905 0.072492383 0.73900002
0.034533337 0.072590478 0.74000001
0.036040001 0.072786674 0.74200004
0.037503812 0.072884768 0.74300003
0.039023813 0.073080957 0.74500006
0.040442862 0.073080957 0.74500006
0.041861907 0.073080957 0.74500006
0.043397147 0.073277146 0.74700004
0.044820003 0.073277146 0.74700004
0.046304766 0.07337524 0.74800003
0.047729526 0.07337524 0.74800003
0.049285717 0.073571436 0.75000006
0.050714288 0.073571436 0.75000006
0.052281909 0.073767625 0.75200003
0.05371429 0.073767625 0.75200003
0.055146672 0.073767625 0.75200003
-0.007836191 0.074800007 0.74800003
-0.0064285719 0.075000003 0.75000006
-0.0049866671 0.074800007 0.74800003
-0.003557143 0.074700005 0.74700004
-0.0021285715 0.074500002 0.74500006
-0.00070952385 0.074500002 0.74500006
0.00070952385 0.074500002 0.74500006
0.0021228574 0.074300006 0.74300003
0.0035380954 0.074300006 0.74300003
0.0049533336 0.074300006 0.74300003
0.0063600005 0.074200004 0.74200004
0.0077419053 0.073900007 0.73900002
0.0091495244 0.073900007 0.73900002
0.010557144 0.073900007 0.73900002
0.011932381 0.073700003 0.73700005
0.013336191 0.073700003 0.73700005
0.014740001 0.073700003 0.73700005
0.01614381 0.073700003 0.73700005
0.01752381 0.073600002 0.73600006
0.018925715 0.073600002 0.73600006
0.020272382 0.073400006 0.73400003
0.021670477 0.073400006 0.73400003
0.023068573 0.073400006 0.73400003
0.024466669 0.073400006 0.73400003
0.02593524 0.073600002 0.73600006
0.027337145 0.073600002 0.73600006
0.02873905 0.073600002 0.73600006
0.030140955 0.073600002 0.73600006
0.031585716 0.073700003 0.73700005
0.03307905 0.073900007 0.73900002
0.03448667 0.073900007 0.73900002
0.03594286 0.074000008 0.74000001
0.037453335 0.074200004 0.74200004
0.03891905 0.074300006 0.74300003
0.040334288 0.074300006 0.74300003
0.041861907 0.074500002 0.74500006
0.043397147 0.074700005 0.74700004
0.044820003 0.074700005 0.74700004
0.046304766 0.074800007 0.74800003
0.047857147 0.075000003 0.75000006
0.049285717 0.075000003 0.75000006
0.050714288 0.075000003 0.75000006
0.052142862 0.075000003 0.75000006
0.053571433 0.075000003 0.75000006
-0.0092857145 0.076428577 0.75000006
-0.0078571429 0.076428577 0.75000006
-0.0064285719 0.076428577 0.75000006
-0.0049866671 0.076224767 0.74800003
-0.003557143 0.076122865 0.74700004
-0.0021285715 0.075919054 0.74500006
-0.00070952385 0.075919054 0.74500006
0.00070952385 0.075919054 0.74500006
0.0021228574 0.075715244 0.74300003
0.0035380954 0.075715244 0.74300003
0.0049533336 0.075715244 0.74300003
0.0063600005 0.075613335 0.74200004
0.0077419053 0.075307623 0.73900002
0.0091495244 0.075307623 0.73900002
0.010557144 0.075307623 0.73900002
0.011964763 0.075307623 0.73900002
0.013336191 0.075103812 0.73700005
0.014740001 0.075103812 0.73700005
0.01614381 0.075103812 0.73700005
0.01754762 0.075103812 0.73700005
0.018951429 0.075103812 0.73700005
0.02032762 0.07500191 0.73600006
0.021670477 0.0747981 0.73400003
0.023068573 0.0747981 0.73400003
0.024533335 0.07500191 0.73600006
0.02593524 0.07500191 0.73600006
0.027337145 0.07500191 0.73600006
0.028778097 0.075103812 0.73700005
0.030181907 0.075103812 0.73700005
0.031671431 0.075307623 0.73900002
0.03307905 0.075307623 0.73900002
0.03448667 0.075307623 0.73900002
0.03594286 0.075409532 0.74000001
0.037453335 0.075613335 0.74200004
0.038866669 0.075613335 0.74200004
0.040334288 0.075715244 0.74300003
0.041749526 0.075715244 0.74300003
0.043397147 0.076122865 0.74700004
0.044820003 0.076122865 0.74700004
0.046428576 0.076428577 0.75000006
0.047857147 0.076428577 0.75000006
0.049285717 0.076428577 0.75000006
0.050849527 0.076632388 0.75200003
0.052281909 0.076632388 0.75200003
0.05371429 0.076632388 0.75200003
-0.0093104765 0.07806477 0.75200003
-0.0078780958 0.07806477 0.75200003
-0.0064457147 0.07806477 0.75200003
-0.0050000004 0.077857152 0.75000006
-0.003557143 0.077545717 0.74700004
-0.0021285715 0.077338099 0.74500006
-0.00070952385 0.077338099 0.74500006
0.00070761907 0.077130482 0.74300003
0.0021228574 0.077130482 0.74300003
0.0035380954 0.077130482 0.74300003
0.0049533336 0.077130482 0.74300003
0.0063600005 0.077026673 0.74200004
0.0077523813 0.076819055 0.74000001
0.0091495244 0.076715246 0.73900002
0.010557144 0.076715246 0.73900002
0.011964763 0.076715246 0.73900002
0.013372382 0.076715246 0.73900002
0.014780001 0.076715246 0.73900002
0.01614381 0.076507621 0.73700005
0.01754762 0.076507621 0.73700005
0.018951429 0.076507621 0.73700005
0.02035524 0.076507621 0.73700005
0.021729525 0.076403812 0.73600006
0.023068573 0.076196194 0.73400003
0.024533335 0.076403812 0.73600006
0.02593524 0.076403812 0.73600006
0.027337145 0.076403812 0.73600006
0.028778097 0.076507621 0.73700005
0.030181907 0.076507621 0.73700005
0.031671431 0.076715246 0.73900002
0.03307905 0.076715246 0.73900002
0.03448667 0.076715246 0.73900002
0.03594286 0.076819055 0.74000001
0.037453335 0.077026673 0.74200004
0.038866669 0.077026673 0.74200004
0.040334288 0.077130482 0.74300003
0.041861907 0.077338099 0.74500006
0.043455239 0.077649526 0.74800003
0.044880003 0.077649526 0.74800003
0.046428576 0.077857152 0.75000006
0.047984764 0.07806477 0.75200003
0.049417146 0.07806477 0.75200003
0.050849527 0.07806477 0.75200003
0.052281909 0.07806477 0.75200003
-0.0093600005 0.079920009 0.75600004
-0.0078885723 0.07960286 0.75300002
-0.0064542862 0.07960286 0.75300002
-0.0050133336 0.079497151 0.75200003
-0.0035714288 0.079285719 0.75000006
-0.0021342859 0.078968577 0.74700004
-0.00070952385 0.078757145 0.74500006
0.00070952385 0.078757145 0.74500006
0.0021285715 0.078757145 0.74500006
0.0035380954 0.078545719 0.74300003
0.0049533336 0.078545719 0.74300003
0.0063600005 0.078440003 0.74200004
0.0077523813 0.078228578 0.74000001
0.0091495244 0.078122862 0.73900002
0.010557144 0.078122862 0.73900002
0.011964763 0.078122862 0.73900002
0.013372382 0.078122862 0.73900002
0.014780001 0.078122862 0.73900002
0.01614381 0.077911437 0.73700005
0.017595239 0.078122862 0.73900002
0.018951429 0.077911437 0.73700005
0.02035524 0.077911437 0.73700005
0.021670477 0.077594288 0.73400003
0.023068573 0.077594288 0.73400003
0.024466669 0.077594288 0.73400003
0.02593524 0.07780572 0.73600006
0.027374288 0.077911437 0.73700005
0.028778097 0.077911437 0.73700005
0.030181907 0.077911437 0.73700005
0.031671431 0.078122862 0.73900002
0.03307905 0.078122862 0.73900002
0.03448667 0.078122862 0.73900002
0.03594286 0.078228578 0.74000001
0.037453335 0.078440003 0.74200004
0.038866669 0.078440003 0.74200004
0.040334288 0.078545719 0.74300003
0.041861907 0.078757145 0.74500006
0.043455239 0.079074293 0.74800003
0.045000002 0.079285719 0.75000006
0.046552382 0.079497151 0.75200003
0.047984764 0.079497151 0.75200003
0.049417146 0.079497151 0.75200003
0.050849527 0.079497151 0.75200003
0.052281909 0.079497151 0.75200003
0.05371429 0.079497151 0.75200003
-0.0093600005 0.081360005 0.75600004
-0.0079200007 0.081360005 0.75600004
-0.006471429 0.081252389 0.75500005
-0.0050200005 0.081037149 0.75300002
-0.0035809525 0.080929533 0.75200003
-0.0021371429 0.080499053 0.74800003
-0.00071142864 0.080391437 0.74700004
0.00070952385 0.080176197 0.74500006
0.0021285715 0.080176197 0.74500006
0.0035380954 0.079960957 0.74300003
0.0049533336 0.079960957 0.74300003
0.0063600005 0.079853341 0.74200004
0.0077733337 0.079853341 0.74200004
0.0091495244 0.079530485 0.73900002
0.010557144 0.079530485 0.73900002
0.011964763 0.079530485 0.73900002
0.013372382 0.079530485 0.73900002
0.014780001 0.079530485 0.73900002
0.01614381 0.079315245 0.73700005
0.01754762 0.079315245 0.73700005
0.018951429 0.079315245 0.73700005
0.02035524 0.079315245 0.73700005
0.021670477 0.078992389 0.73400003
0.023068573 0.078992389 0.73400003
0.024400001 0.078777149 0.73200005
0.02593524 0.079207622 0.73600006
0.027337145 0.079207622 0.73600006
0.028778097 0.079315245 0.73700005
0.030181907 0.079315245 0.73700005
0.031671431 0.079530485 0.73900002
0.03307905 0.079530485 0.73900002
0.03448667 0.079530485 0.73900002
0.03594286 0.079638101 0.74000001
0.037352383 0.079638101 0.74000001
0.038866669 0.079853341 0.74200004
0.040442862 0.080176197 0.74500006
0.04203048 0.080499053 0.74800003
0.043571431 0.080714293 0.75000006
0.045000002 0.080714293 0.75000006
0.046552382 0.080929533 0.75200003
0.048048574 0.081037149 0.75300002
0.04948286 0.081037149 0.75300002
0.050917145 0.081037149 0.75300002
0.052351434 0.081037149 0.75300002
0.053785719 0.081037149 0.75300002
-0.0093600005 0.082800008 0.75600004
-0.0079200007 0.082800008 0.75600004
-0.0064800004 0.082800008 0.75600004
-0.0050333338 0.082690485 0.75500005
-0.0035857146 0.08247143 0.75300002
-0.0021371429 0.081923813 0.74800003
-0.00071142864 0.081814289 0.74700004
0.00070952385 0.081595242 0.74500006
0.0021285715 0.081595242 0.74500006
0.0035380954 0.081376195 0.74300003
0.0049533336 0.081376195 0.74300003
0.0063600005 0.081266671 0.74200004
0.0077733337 0.081266671 0.74200004
0.0091495244 0.080938101 0.73900002
0.010557144 0.080938101 0.73900002
0.011964763 0.080938101 0.73900002
0.013372382 0.080938101 0.73900002
0.014780001 0.080938101 0.73900002
0.01614381 0.080719054 0.73700005
0.01754762 0.080719054 0.73700005
0.018951429 0.080719054 0.73700005
0.02035524 0.080719054 0.73700005
0.021670477 0.080390483 0.73400003
0.023068573 0.080390483 0.73400003
0.024466669 0.080390483 0.73400003
0.02593524 0.08060953 0.73600006
0.027337145 0.08060953 0.73600006
0.028778097 0.080719054 0.73700005
0.030181907 0.080719054 0.73700005
0.031671431 0.080938101 0.73900002
0.03307905 0.080938101 0.73900002
0.034533337 0.081047624 0.74000001
0.036040001 0.081266671 0.74200004
0.037453335 0.081266671 0.74200004
0.03891905 0.081376195 0.74300003
0.040442862 0.081595242 0.74500006
0.042142861 0.08214286 0.75000006
0.043571431 0.08214286 0.75000006
0.045120005 0.082361907 0.75200003
0.046552382 0.082361907 0.75200003
0.048048574 0.08247143 0.75300002
0.04948286 0.08247143 0.75300002
0.050917145 0.08247143 0.75300002
0.052351434 0.08247143 0.75300002
-0.0093847625 0.084462866 0.75800002
-0.0079409527 0.084462866 0.75800002
-0.0064800004 0.084240004 0.75600004
-0.0050400002 0.084240004 0.75600004
-0.0035857146 0.083905719 0.75300002
-0.0021428573 0.083571434 0.75000006
-0.00071142864 0.083237149 0.74700004
0.00071142864 0.083237149 0.74700004
0.0021285715 0.083014295 0.74500006
0.0035380954 0.082791433 0.74300003
0.0049533336 0.082791433 0.74300003
0.0063600005 0.082680002 0.74200004
0.0077733337 0.082680002 0.74200004
0.0091495244 0.082345717 0.73900002
0.010557144 0.082345717 0.73900002
0.011932381 0.082122862 0.73700005
0.013336191 0.082122862 0.73700005
0.014740001 0.082122862 0.73700005
0.01614381 0.082122862 0.73700005
0.01754762 0.082122862 0.73700005
0.018951429 0.082122862 0.73700005
0.02032762 0.082011431 0.73600006
0.021670477 0.081788577 0.73400003
0.023068573 0.081788577 0.73400003
0.024466669 0.081788577 0.73400003
0.02593524 0.082011431 0.73600006
0.027337145 0.082011431 0.73600006
0.028778097 0.082122862 0.73700005
0.030181907 0.082122862 0.73700005
0.031671431 0.082345717 0.73900002
0.03307905 0.082345717 0.73900002
0.034533337 0.082457148 0.74000001
0.03594286 0.082457148 0.74000001
0.037503812 0.082791433 0.74300003
0.03891905 0.082791433 0.74300003
0.040551431 0.083237149 0.74700004
0.042142861 0.083571434 0.75000006
0.043571431 0.083571434 0.75000006
0.045120005 0.083794288 0.75200003
0.046614289 0.083905719 0.75300002
0.048176195 0.084128574 0.75500005
0.049614288 0.084128574 0.75500005
0.051052384 0.084128574 0.75500005
0.05249048 0.084128574 0.75500005
-0.010857143 0.086133339 0.76000005
-0.0094095245 0.086133339 0.76000005
-0.0079409527 0.085906669 0.75800002
-0.0064971433 0.085906669 0.75800002
-0.0050400002 0.085680008 0.75600004
-0.0035952383 0.08556667 0.75500005
-0.0021514287 0.085340008 0.75300002
-0.00071238098 0.084773339 0.74800003
0.00071142864 0.084660009 0.74700004
0.0021285715 0.08443334 0.74500006
0.0035476193 0.08443334 0.74500006
0.0049533336 0.084206671 0.74300003
0.0063685719 0.084206671 0.74300003
0.0077733337 0.08409334 0.74200004
0.0091495244 0.08375334 0.73900002
0.010557144 0.08375334 0.73900002
0.011932381 0.083526671 0.73700005
0.013318096 0.08341334 0.73600006
0.014720001 0.08341334 0.73600006
0.016078096 0.083186671 0.73400003
0.017476192 0.083186671 0.73400003
0.018874288 0.083186671 0.73400003
0.020272382 0.083186671 0.73400003
0.02161143 0.082960002 0.73200005
0.023005717 0.082960002 0.73200005
0.024400001 0.082960002 0.73200005
0.025864763 0.083186671 0.73400003
0.027337145 0.08341334 0.73600006
0.02873905 0.08341334 0.73600006
0.030181907 0.083526671 0.73700005
0.031585716 0.083526671 0.73700005
0.03312381 0.083866671 0.74000001
0.03462667 0.08409334 0.74200004
0.036088575 0.084206671 0.74300003
