# .PCD v0.7 - Point Cloud Data file format
VERSION 0.7
FIELDS x y z
SIZE 4 4 4
TYPE F F F
COUNT 1 1 1
WIDTH 1475
HEIGHT 1
VIEWPOINT 0 0 0 1 0 0 0
POINTS 1475
DATA ascii
-0.42490903 -0.25620839 1.1321541
-0.41478592 -0.25595298 1.133
-0.40460882 -0.25434184 1.1329091
-0.39549905 -0.25508928 1.1328573
-0.38569537 -0.25611874 1.132091
-0.37506118 -0.25700632 1.131
-0.36572915 -0.25784692 1.1328001
-0.35442349 -0.25685909 1.1326667
-0.34514287 -0.25670147 1.1324999
-0.33591476 -0.25682169 1.131
-0.32438976 -0.25757375 1.1316001
-0.31542319 -0.25570318 1.1319001
-0.30559963 -0.25690413 1.1327144
-0.29484004 -0.25812003 1.1340001
-0.28544289 -0.25743717 1.131
-0.27467147 -0.25786802 1.131
-0.26497716 -0.25743717 1.131
-0.25620615 -0.25897595 1.131
-0.24343431 -0.25959146 1.131
-0.23804858 -0.25959146 1.131
-0.22296858 -0.25959146 1.131
-0.21542859 -0.25959146 1.131
-0.66148514 -0.24530225 1.138
-0.65509921 -0.24467948 1.1350836
-0.6446104 -0.24522562 1.1342858
-0.63479888 -0.24463932 1.13325
-0.62653714 -0.24554458 1.1349999
-0.61514437 -0.2473543 1.1325001
-0.60399717 -0.24915001 1.1325001
-0.5954529 -0.24659328 1.1320715
-0.58504266 -0.24737802 1.1313002
-0.57616818 -0.24821192 1.1315001
-0.56657714 -0.24882002 1.131
-0.55472863 -0.24882002 1.131
-0.54431629 -0.24810193 1.131
-0.53441679 -0.24789679 1.131
-0.52780008 -0.24882002 1.131
-0.50410289 -0.24882002 1.131
-0.49363947 -0.24865316 1.1322001
-0.48633006 -0.24828145 1.131
0.59592003 -0.33070287 1.146
0.61120003 -0.33070287 1.146
0.47679147 -0.32112858 1.143
0.4859283 -0.32322732 1.1440001
0.49446937 -0.32304192 1.1436001
0.50321972 -0.32360321 1.1453334
0.51580918 -0.32240802 1.146
0.52525944 -0.32378688 1.1455556
0.53298104 -0.32269907 1.1460001
0.54596686 -0.32366025 1.14425
0.55525047 -0.32403898 1.1441818
0.56518286 -0.32458368 1.1452001
0.57526416 -0.32576892 1.1440001
0.58421612 -0.32534924 1.1442223
0.59596503 -0.32772765 1.1440001
0.60406363 -0.32867852 1.1420001
0.61015433 -0.32628572 1.1420001
0.37436002 -0.31105715 1.1460001
0.38636574 -0.31105715 1.146
0.39400572 -0.31160286 1.146
0.4005543 -0.31105715 1.146
0.41474289 -0.31105715 1.146
0.42334414 -0.3128756 1.1446667
0.43545833 -0.31487662 1.1448001
0.44589373 -0.3154172 1.1436001
0.45481092 -0.31626862 1.1428573
0.46457669 -0.31630814 1.14475
0.47176191 -0.31705335 1.1440001
0.49704194 -0.31867239 1.1420001
0.50589573 -0.31722862 1.142889
0.51455855 -0.31807771 1.1433334
0.5260452 -0.31794733 1.1420001
0.53477693 -0.31837803 1.1442858
0.54255283 -0.31890708 1.1444
0.14479619 -0.30159813 1.146
0.15498288 -0.30232573 1.146
0.16480573 -0.30188915 1.146
0.17535619 -0.30305335 1.146
0.18363288 -0.30205286 1.146
0.19567758 -0.30107841 1.1460001
0.20409715 -0.3012343 1.146
0.21719432 -0.30014288 1.1460001
0.2246362 -0.30260766 1.145
0.23435792 -0.30333114 1.1445456
0.24557145 -0.3045086 1.146
0.25637144 -0.30283323 1.1433333
0.26619384 -0.30328527 1.1455001
0.27498037 -0.30388102 1.1450001
0.28490439 -0.30306944 1.1442223
0.29471165 -0.30364916 1.1444
0.30529821 -0.30445358 1.1453334
0.31522545 -0.30522835 1.144353
0.32487813 -0.30494758 1.1432309
0.33448192 -0.30724761 1.1440001
0.34537721 -0.30479667 1.1440001
0.35504618 -0.30457908 1.14575
0.36478907 -0.30501235 1.146
0.37508598 -0.30682522 1.1437778
0.38466167 -0.30660316 1.1441818
0.39563546 -0.30844307 1.1444
0.40517145 -0.30851495 1.1446667
0.41307774 -0.30779624 1.1420001
0.4209086 -0.30997145 1.1420001
-0.10368572 -0.29141146 1.146
-0.093862861 -0.29141146 1.146
-0.085131437 -0.29141146 1.146
-0.075101338 -0.29059774 1.1428001
-0.064940006 -0.29141146 1.146
-0.054571431 -0.29141146 1.146
-0.043930005 -0.29223001 1.146
-0.034489147 -0.29315773 1.146
-0.025414696 -0.29343837 1.1460001
-0.015908573 -0.2933017 1.1440001
-0.0059971432 -0.29287845 1.1453333
0.0054487619 -0.29209602 1.1444
0.014537144 -0.29180002 1.1446667
0.026536087 -0.29264066 1.1451112
0.034507733 -0.29386735 1.1442223
0.045004632 -0.2933864 1.1445715
0.055425145 -0.29326418 1.1441334
0.064781234 -0.29509988 1.1445715
0.075039566 -0.29454404 1.1444616
0.085012577 -0.29275092 1.1444
0.09434741 -0.29512602 1.1447693
0.10564535 -0.29319927 1.1436001
0.11483176 -0.29470798 1.1446667
0.12616637 -0.29524261 1.1453333
0.13500592 -0.29556257 1.1442223
0.14422455 -0.2972773 1.1424445
0.15552954 -0.29909524 1.1420001
0.16597067 -0.29822516 1.1420001
0.17546922 -0.29873273 1.1420002
0.18489525 -0.29637623 1.1420001
0.19451621 -0.29655218 1.1424445
0.20483494 -0.29764509 1.1420001
0.21208572 -0.29692003 1.1420001
0.22513716 -0.29909524 1.1420001
0.26537907 -0.29909524 1.1420001
0.27516764 -0.29909524 1.1420001
0.29619497 -0.29909524 1.1420001
0.30513757 -0.29812852 1.1420001
0.31519204 -0.29866022 1.1420001
0.34912574 -0.29909524 1.1420001
0.35459694 -0.29799813 1.1428002
0.36157021 -0.29833841 1.1446667
-0.22483429 -0.28213429 1.146
-0.21501146 -0.28268 1.146
-0.20453373 -0.28137031 1.146
-0.19609335 -0.28086099 1.146
-0.18493654 -0.28170985 1.146
-0.17455381 -0.28364813 1.1455001
-0.16495211 -0.28473696 1.1448572
-0.15519314 -0.2843155 1.1444616
-0.14546888 -0.28414759 1.1444616
-0.13566886 -0.28364548 1.1448572
-0.12575598 -0.28503811 1.1437778
-0.11505258 -0.28654706 1.1440002
-0.10558433 -0.28627682 1.1429232
-0.094686866 -0.28733337 1.1428001
-0.085608773 -0.28818783 1.1436001
-0.06251467 -0.28775278 1.1436001
-0.055069845 -0.28745928 1.1437777
-0.043867305 -0.28785655 1.1420002
-0.034097146 -0.28766227 1.1426668
-0.025876667 -0.28790811 1.1440001
-0.017401906 -0.28821906 1.1420001
-0.0054380959 -0.28821906 1.1420001
0.0054380954 -0.28821906 1.1420001
0.015226668 -0.28821906 1.1420001
0.022840001 -0.28821906 1.1420001
0.084834293 -0.28821906 1.1420001
-0.4725886 -0.27176574 1.146
-0.43875432 -0.27176574 1.146
-0.40361032 -0.27263889 1.146
-0.39493528 -0.2722089 1.1437778
-0.38516003 -0.27231428 1.1442223
-0.37872574 -0.27176574 1.146
-0.36235431 -0.27176574 1.146
-0.3547143 -0.27176574 1.146
-0.34489143 -0.27176574 1.146
-0.33506858 -0.27176574 1.146
-0.32571352 -0.27270123 1.1460001
-0.31590796 -0.27273589 1.146
-0.30466858 -0.2722539 1.1454287
-0.29403087 -0.27220231 1.146
-0.28480253 -0.27406493 1.145077
-0.27554151 -0.27352002 1.1448572
-0.26552904 -0.27270123 1.1460001
-0.25540209 -0.27283517 1.1438181
-0.24557811 -0.27391595 1.1443334
-0.23467427 -0.27547869 1.1445715
-0.22563241 -0.2775048 1.1426668
-0.21469603 -0.2790831 1.1420001
-0.20649226 -0.27796441 1.1420002
-0.19495659 -0.27773148 1.1436001
-0.18417017 -0.27661783 1.1420002
-0.17565048 -0.27870241 1.1420001
-0.1642305 -0.27951813 1.1420001
-0.15552953 -0.27951813 1.1420001
-0.64447242 -0.26362336 1.145
-0.63493288 -0.26237383 1.1454999
-0.62538862 -0.26085144 1.146
-0.61578405 -0.26128802 1.146
-0.60404509 -0.26303428 1.146
-0.59506905 -0.2643787 1.1452
-0.58532906 -0.26378146 1.1445
-0.57526577 -0.2647562 1.1440001
-0.56526059 -0.26727811 1.1436001
-0.55348003 -0.26693523 1.1440001
-0.54452145 -0.26491383 1.1435001
-0.53555417 -0.26522481 1.1438463
-0.52565271 -0.26567304 1.1437778
-0.51465106 -0.26550254 1.1444001
-0.50458258 -0.26559505 1.1448001
-0.49473369 -0.26582369 1.1445715
-0.48528066 -0.26678032 1.1433334
-0.47401685 -0.26677942 1.144182
-0.46429285 -0.26600218 1.1440001
-0.45503235 -0.26607433 1.1446668
-0.44543841 -0.26636487 1.1446668
-0.43503079 -0.26709142 1.1440001
-0.42468384 -0.2653805 1.1437501
-0.41505933 -0.26539597 1.145
-0.40548238 -0.26596192 1.1445
-0.39553082 -0.26864192 1.1420001
-0.3831743 -0.26887718 1.1430001
-0.37423488 -0.26811296 1.1437144
-0.36467978 -0.26709145 1.1440001
-0.35500097 -0.26729906 1.1440001
-0.34522814 -0.26790714 1.1435001
-0.33503219 -0.26819786 1.1442223
-0.3244144 -0.26703325 1.1427275
-0.31540954 -0.26646668 1.1420002
-0.30572572 -0.26764843 1.1424001
-0.29471853 -0.26785165 1.1437778
-0.28512448 -0.26807368 1.1426668
-0.27516767 -0.26864192 1.1420001
-0.26646668 -0.26864192 1.1420001
-0.66300458 -0.25413629 1.1434546
-0.65520257 -0.2541562 1.1453333
-0.64519262 -0.25461179 1.1438183
-0.63566399 -0.25697476 1.1420002
-0.62516195 -0.25760078 1.1432002
-0.61428976 -0.25667554 1.144182
-0.60579497 -0.25682861 1.1426668
-0.59710288 -0.25885338 1.1420001
-0.5862267 -0.25994098 1.1420001
-0.53619623 -0.25994098 1.1420001
-0.50248003 -0.25994098 1.1420001
-0.49704194 -0.25994098 1.1420001
-0.41220766 -0.25994098 1.1420001
-0.40568194 -0.25994098 1.1420001
-0.66344768 -0.24906477 1.1420001
-0.65365911 -0.24906477 1.1420001
0.50467241 -0.34048858 1.1570001
0.51569146 -0.34048858 1.1570001
0.52560866 -0.34103954 1.1570001
0.53442383 -0.34181088 1.1570001
0.54323912 -0.34048858 1.1570001
0.55499274 -0.34122321 1.1570001
0.56417525 -0.34048858 1.1570001
0.57629621 -0.34048858 1.1570001
0.6054967 -0.34048858 1.1570001
0.61486292 -0.34103954 1.1570001
0.45949432 -0.33167335 1.1570001
0.46522424 -0.33211413 1.1570001
0.47492099 -0.33167335 1.1570001
0.48399624 -0.33110002 1.155
0.49543887 -0.33440194 1.155
0.50466597 -0.33486393 1.1528
0.51497376 -0.33465722 1.1526
0.52518266 -0.33445218 1.1519285
0.53438753 -0.3355546 1.1518749
0.54522121 -0.33484361 1.1533076
0.55507463 -0.33480632 1.1525999
0.56574714 -0.33505517 1.1534615
0.57507294 -0.33537126 1.1545454
0.58458281 -0.33499387 1.1537856
0.59483927 -0.33493364 1.1537273
0.60477948 -0.33640161 1.1538889
0.61361039 -0.33689582 1.154125
0.23470573 -0.3206543 1.1570001
0.25894764 -0.3206543 1.1570001
0.2654424 -0.32244313 1.1565001
0.27510893 -0.32249081 1.1570001
0.28098574 -0.3206543 1.1570001
0.32726574 -0.32065433 1.1570001
0.33497906 -0.32175621 1.1570001
0.3441616 -0.32102162 1.1570001
0.35701716 -0.3206543 1.1570001
0.36436319 -0.32212353 1.1570001
0.37354577 -0.32065433 1.1570001
0.38558576 -0.32322067 1.1556667
0.39581639 -0.32431895 1.155
0.40542835 -0.32466018 1.155
0.41486451 -0.32463202 1.1554614
0.4251284 -0.32321751 1.1547778
0.43521172 -0.32368961 1.1533078
0.44516212 -0.32464629 1.1530625
0.45482591 -0.32605299 1.1537333
0.46523371 -0.32589754 1.1526666
0.47469115 -0.32658541 1.152
0.48470375 -0.32723281 1.1500001
0.49577782 -0.32893652 1.1500001
0.50570142 -0.32787448 1.15
0.51476192 -0.32692859 1.15
0.52364558 -0.32844976 1.1500001
0.53630173 -0.32718411 1.15
0.5443334 -0.32841498 1.1500002
0.55802387 -0.32911906 1.1500001
0.56514287 -0.32966667 1.1500001
0.57456201 -0.32922861 1.1500001
0.58485717 -0.32966667 1.1500001
0.59142864 -0.32857144 1.1500001
0.1366362 -0.31183907 1.1570001
0.14524953 -0.31317011 1.1554002
0.15458043 -0.31221956 1.1547778
0.16582732 -0.31221431 1.1556667
0.17419668 -0.31213051 1.1539999
0.18658611 -0.31251699 1.1537999
0.19572896 -0.31335112 1.1551818
0.20533551 -0.31399035 1.1544117
0.21429077 -0.31444439 1.1555713
0.22531638 -0.31405288 1.155
0.23415798 -0.31551298 1.1543076
0.245189 -0.31201595 1.1530001
0.25529268 -0.31389636 1.1547142
0.26449421 -0.31544366 1.1523683
0.27400601 -0.31554815 1.1521429
0.28443059 -0.31540599 1.1551538
0.295288 -0.31367937 1.1541817
0.30593547 -0.31405869 1.1522
0.31506783 -0.31507221 1.1526922
0.32521039 -0.31497404 1.1523333
0.33524376 -0.31550428 1.1516
0.34503865 -0.31481853 1.1523846
0.35512307 -0.31546721 1.1525333
0.36449012 -0.31521183 1.1516001
0.37448776 -0.31625301 1.152077
0.38439465 -0.31630117 1.1510587
0.39567569 -0.31644809 1.1508572
0.4057616 -0.31635678 1.1518749
0.41487136 -0.31636256 1.1509999
0.42462525 -0.31764945 1.1508999
0.43316668 -0.31816667 1.1500001
0.44357145 -0.31871432 1.1500001
-0.15316477 -0.30082002 1.1570001
-0.14875716 -0.30082002 1.1570001
-0.1134962 -0.3019219 1.1570001
-0.10531063 -0.30239421 1.1570002
-0.094029211 -0.3019219 1.1570001
-0.086609714 -0.30126077 1.1570001
-0.072725721 -0.30082002 1.1570001
-0.064277783 -0.30118734 1.1570001
-0.05509524 -0.3019219 1.1570001
-0.045453575 -0.3021974 1.1570001
-0.035040572 -0.30346459 1.1570001
-0.024475478 -0.30332643 1.155
-0.015399048 -0.30360097 1.155
-0.0059070997 -0.30433106 1.1566364
0.0059920638 -0.3036541 1.1556666
0.015400002 -0.30360192 1.155
0.025285145 -0.30344483 1.1543999
0.035611294 -0.3029207 1.1530002
0.045558386 -0.30401936 1.1536922
0.054964282 -0.30560735 1.1542498
0.064384505 -0.30474779 1.1523888
0.075342588 -0.30356532 1.1512856
0.084967107 -0.30525199 1.152
0.094973989 -0.30479521 1.1521109
0.10504354 -0.30448705 1.1535383
0.11535377 -0.30505461 1.1535555
0.12493609 -0.30565676 1.1537058
0.13503367 -0.30520865 1.1527499
0.14437272 -0.30665779 1.1513333
0.15450744 -0.30682728 1.1506001
0.16553681 -0.30665994 1.1510909
0.17508166 -0.30744901 1.1500002
0.18645898 -0.3063089 1.1503
0.19476831 -0.3064104 1.1515
0.20585753 -0.30604878 1.1511538
0.21459296 -0.30528724 1.1512858
0.22420119 -0.30748445 1.1506001
0.23547621 -0.30897886 1.1500001
0.24467622 -0.30820003 1.1500001
0.25519049 -0.30776194 1.1500001
0.26504764 -0.30885717 1.1500001
0.27490479 -0.30932656 1.1500002
0.28476194 -0.30885717 1.1500001
0.29461908 -0.30885717 1.1500001
0.3044762 -0.30995241 1.1500001
0.32309526 -0.30995244 1.1500001
0.34500003 -0.30995241 1.1500001
0.35522223 -0.30995244 1.1500001
0.36361909 -0.30995241 1.1500001
0.37128574 -0.30995241 1.1500001
0.38515875 -0.30703178 1.1500001
0.40852383 -0.30995241 1.1500001
-0.22258478 -0.29200479 1.1570001
-0.21487145 -0.29200479 1.1570001
-0.20458701 -0.29200479 1.1570001
-0.19486953 -0.29285431 1.1559999
-0.18495564 -0.29272062 1.1546
-0.17498717 -0.29379317 1.1535
-0.16543457 -0.29292929 1.1525714
-0.15483968 -0.29430637 1.1530498
-0.14500979 -0.29442191 1.1534998
-0.13569027 -0.29345089 1.1539999
-0.12463959 -0.2937665 1.1544545
-0.11461537 -0.2948975 1.1525881
-0.10580548 -0.29603785 1.1512499
-0.095794849 -0.29616597 1.15175
-0.084618591 -0.2967186 1.1539
-0.074752867 -0.29680979 1.15425
-0.064547107 -0.29600117 1.1522727
-0.054833341 -0.29610145 1.1515
-0.045457251 -0.29724097 1.1516666
-0.035838734 -0.29878986 1.152
-0.024506036 -0.29915494 1.152
-0.015333334 -0.29900002 1.1500001
-0.0046604765 -0.29856861 1.1515
0.0054764766 -0.29798278 1.1503
0.01577143 -0.29724765 1.15
0.023995673 -0.29720783 1.15
0.035047621 -0.29900002 1.1500001
0.044904765 -0.29900002 1.1500001
0.053666674 -0.29900002 1.1500001
0.060238101 -0.29900002 1.1500001
0.077761918 -0.29900002 1.1500001
0.085428581 -0.29826987 1.1500001
0.098571435 -0.29900002 1.1500001
0.10580001 -0.29856193 1.1500001
0.11426985 -0.29863495 1.1500001
0.12485716 -0.29900002 1.1500001
0.13142858 -0.29900002 1.1500001
-0.54506582 -0.28123221 1.1562001
-0.53546464 -0.28102303 1.1558571
-0.5241394 -0.28098577 1.1570001
-0.51789528 -0.28098574 1.1570001
-0.50136667 -0.28098574 1.1570001
-0.49475527 -0.28098574 1.1570001
-0.48461777 -0.28186727 1.1570001
-0.47650334 -0.28144789 1.1554999
-0.46280003 -0.28098574 1.1570001
-0.45472726 -0.28182766 1.1552857
-0.44512463 -0.28260443 1.1546
-0.43576372 -0.28133783 1.1558571
-0.4249686 -0.28074288 1.156
-0.41487959 -0.28172335 1.1555001
-0.40533224 -0.28142551 1.1547778
-0.39546403 -0.28177831 1.1552222
-0.38430551 -0.28119907 1.1552857
-0.37464765 -0.28208762 1.1570001
-0.36467874 -0.28286451 1.1556667
-0.35504237 -0.28185761 1.1548182
-0.3442834 -0.28395891 1.1559333
-0.3353776 -0.28404805 1.1549999
-0.32504904 -0.28361893 1.155
-0.31432527 -0.28335431 1.1546667
-0.3049736 -0.28352836 1.1549999
-0.29543146 -0.28324863 1.1551538
-0.28536823 -0.28486452 1.1541538
-0.27508283 -0.28402337 1.1520715
-0.26551875 -0.28422445 1.1552221
-0.25503647 -0.28492361 1.1550832
-0.24498755 -0.28454319 1.1535386
-0.23481262 -0.28416145 1.1513572
-0.22505097 -0.28719002 1.1527001
-0.21501562 -0.28742135 1.151875
-0.20517066 -0.28665525 1.151
-0.19499549 -0.28591979 1.15025
-0.18509525 -0.28695238 1.15
-0.1752381 -0.28804764 1.1500001
-0.14238095 -0.28804764 1.1500001
-0.13471429 -0.28804764 1.1500001
-0.65267658 -0.27259144 1.1556667
-0.64607143 -0.27222413 1.1556667
-0.62345785 -0.27305204 1.1570001
-0.61443394 -0.2728706 1.154125
-0.60448623 -0.27437311 1.1534998
-0.59510636 -0.27357197 1.1535999
-0.58529645 -0.27350312 1.155
-0.57473111 -0.27437034 1.1538666
-0.56564933 -0.27458924 1.1536152
-0.55439311 -0.27401957 1.1523999
-0.54530954 -0.2742238 1.1510714
-0.53465992 -0.27497286 1.1527725
-0.52464449 -0.27434477 1.1533748
-0.51497591 -0.27424952 1.1526469
-0.50490266 -0.27326608 1.1523075
-0.49531651 -0.27533942 1.1528822
-0.48491603 -0.2742402 1.1521538
-0.47534192 -0.27506396 1.1512667
-0.46539098 -0.27485031 1.1516001
-0.45460424 -0.27464581 1.1505291
-0.44458249 -0.2757473 1.15
-0.43481997 -0.27526784 1.1508572
-0.425161 -0.27444616 1.1509374
-0.41509336 -0.27431062 1.1503749
-0.4061459 -0.27648556 1.1505001
-0.39538097 -0.27709529 1.1500001
-0.38425493 -0.27709252 1.151125
-0.37476343 -0.27578208 1.1530001
-0.36468613 -0.27548748 1.1506001
-0.35485718 -0.27600005 1.1500001
-0.34500003 -0.27599999 1.15
-0.33514288 -0.27600005 1.1500001
-0.32577249 -0.27758208 1.1500001
-0.31542858 -0.27764288 1.1500001
-0.30529761 -0.27627382 1.1500001
-0.29494852 -0.27668878 1.1503334
-0.28512701 -0.27928573 1.1500001
-0.27417463 -0.27892065 1.1500001
-0.2652041 -0.27678236 1.1500002
-0.25628573 -0.27855557 1.1500001
-0.2446032 -0.27855557 1.1500001
-0.23985715 -0.27928573 1.1500001
-0.67093623 -0.26464096 1.153
-0.66450554 -0.26542526 1.1539998
-0.65523148 -0.26466572 1.1513636
-0.64472169 -0.26710337 1.1512998
-0.63480616 -0.26773107 1.1539999
-0.62528038 -0.2665697 1.1518333
-0.61435068 -0.26579812 1.1503999
-0.60457146 -0.26833335 1.1500001
-0.59361911 -0.26833335 1.1500001
-0.58436769 -0.26861334 1.1512001
-0.57719052 -0.26833335 1.1500001
-0.53557146 -0.26833335 1.1500001
-0.52242863 -0.26833335 1.1500001
-0.50709528 -0.26833335 1.1500001
-0.6634953 -0.25913334 1.1500001
-0.65429527 -0.25913334 1.1500001
-0.64947623 -0.2584762 1.1500001
0.48875338 -0.35181338 1.169
0.50545335 -0.35070002 1.169
0.51630837 -0.35153502 1.169
0.52438003 -0.3512567 1.169
0.55110002 -0.35070002 1.169
0.56700486 -0.35260862 1.1690001
0.57435679 -0.35336703 1.168
0.58450001 -0.3546395 1.1689999
0.59424168 -0.35292667 1.169
0.60454011 -0.35292673 1.169
0.61428171 -0.35320503 1.169
0.40525335 -0.34179336 1.169
0.41477853 -0.34278291 1.169
0.42529336 -0.34179336 1.169
0.4360556 -0.34383449 1.1689999
0.44533333 -0.34357467 1.169
0.4546639 -0.3429977 1.1682727
0.46510512 -0.34213325 1.1667778
0.47557843 -0.34434849 1.16775
0.48482826 -0.34428358 1.1661114
0.49508658 -0.3452355 1.1655716
0.50463736 -0.3450411 1.1637694
0.51449984 -0.34567082 1.1645555
0.52451372 -0.34554783 1.1639092
0.53456867 -0.34683871 1.1650001
0.54564106 -0.34545586 1.1642729
0.55478996 -0.34539104 1.1646001
0.56572604 -0.34557658 1.1653638
0.57501876 -0.34578308 1.1639335
0.58490992 -0.34565541 1.163667
0.59502518 -0.34460866 1.1634617
0.60476398 -0.34527805 1.1628462
0.61415982 -0.34628192 1.1635001
0.62241304 -0.34694132 1.1663334
0.18314335 -0.33121669 1.169
0.19038001 -0.33066002 1.169
0.22645202 -0.33155069 1.169
0.23531821 -0.33207703 1.1689999
0.24493335 -0.3328867 1.1689999
0.25454852 -0.33207703 1.1689999
0.26438802 -0.33287641 1.1674001
0.27425113 -0.33251557 1.1690001
0.28724003 -0.33066002 1.169
0.29503337 -0.33066002 1.169
0.30616668 -0.33066002 1.169
0.31507334 -0.33066002 1.169
0.32843336 -0.33066002 1.169
0.33511335 -0.33066002 1.169
0.34513336 -0.33066002 1.169
0.35636634 -0.33388615 1.1686
0.36488479 -0.3348656 1.1675715
0.37511593 -0.33571872 1.1672224
0.38492659 -0.33496419 1.1658891
0.39558986 -0.33559218 1.166778
0.40497535 -0.33508092 1.1650002
0.41513506 -0.3349497 1.164111
0.4253124 -0.33536762 1.166
0.43510935 -0.33550271 1.1662633
0.44491741 -0.33545074 1.1650002
0.45472932 -0.33557397 1.1634617
0.46386534 -0.33703381 1.1636667
0.47467098 -0.33715189 1.1645001
0.48576438 -0.33719033 1.1630001
0.49499148 -0.33871716 1.1610001
0.58271146 -0.33945429 1.161
0.59708571 -0.33945429 1.161
0.024493337 -0.32175335 1.169
0.030060003 -0.32175335 1.169
0.055507623 -0.32238957 1.1690001
0.064893655 -0.32299313 1.1681111
0.074565828 -0.32262066 1.1685556
0.085390918 -0.32287234 1.1671818
0.094050318 -0.32388827 1.1686666
0.10409667 -0.32314503 1.169
0.11467334 -0.32286665 1.169
0.12529081 -0.32324195 1.1676667
0.13470677 -0.32355604 1.1674616
0.14507462 -0.32213137 1.1667778
0.15572098 -0.32239664 1.1667144
0.16555366 -0.32277989 1.1666667
0.175034 -0.32463899 1.1671177
0.18489382 -0.32467797 1.1660001
0.19504023 -0.32487145 1.1658002
0.2048935 -0.32485718 1.1647145
0.21493401 -0.32543761 1.1656154
0.22512771 -0.32494476 1.1644666
0.23518382 -0.32453495 1.1630001
0.24511297 -0.3245742 1.1652668
0.25490588 -0.3248702 1.1647334
0.2648105 -0.32796952 1.1634001
0.27569774 -0.32708058 1.1625999
0.28527242 -0.32520384 1.1646001
0.29536533 -0.32489294 1.167909
0.30523095 -0.32479873 1.1671335
0.31494585 -0.32493487 1.1644286
0.32468757 -0.32570106 1.1657274
0.33381766 -0.32633883 1.1645
0.34514788 -0.32577789 1.1625001
0.35551906 -0.32597554 1.1634001
0.3645474 -0.32766572 1.161889
0.37509397 -0.32641202 1.1618
0.38405144 -0.32766002 1.1610001
0.39252859 -0.32839715 1.161
0.42459434 -0.32839715 1.161
0.4323343 -0.32839715 1.161
-0.15475334 -0.31062004 1.169
-0.14473335 -0.31062001 1.169
-0.13471335 -0.31189242 1.1690001
-0.12458763 -0.3125791 1.168
-0.11403811 -0.31287527 1.1663334
-0.1051487 -0.31347948 1.1676667
-0.094971158 -0.31509063 1.1672857
-0.085199051 -0.314147 1.1661429
-0.074655846 -0.31408322 1.1668183
-0.064847119 -0.31415865 1.1662308
-0.05512125 -0.31458357 1.1665386
-0.045217015 -0.314147 1.1661429
-0.035160959 -0.31474397 1.1677692
-0.024882272 -0.31440741 1.1671538
-0.015222019 -0.31562307 1.1661766
-0.0055534602 -0.31450096 1.1668669
0.004861786 -0.31495416 1.1670001
0.014948042 -0.31601655 1.1674446
0.025324965 -0.31544504 1.1668949
0.035219662 -0.31568781 1.1664118
0.045263112 -0.31499237 1.1652105
0.05500403 -0.3161374 1.164077
0.065759607 -0.31524915 1.1633532
0.075351432 -0.31470239 1.1635
0.085278422 -0.3156378 1.1628668
0.095339373 -0.3159467 1.164
0.10511364 -0.31476539 1.1643684
0.11466805 -0.31582752 1.1641428
0.12508921 -0.31549305 1.1623335
0.13468222 -0.31623021 1.1623334
0.14319001 -0.31678715 1.161
0.15480001 -0.31734002 1.161
0.16413216 -0.31692073 1.1625001
0.17516477 -0.31733507 1.1626002
0.18433714 -0.31802642 1.1625
0.19460574 -0.31844574 1.161
0.20124 -0.31955144 1.161
0.21782573 -0.31844574 1.161
0.2222486 -0.31844574 1.1610001
0.23994002 -0.31955144 1.161
0.24634479 -0.31825942 1.1616668
0.25320858 -0.31844574 1.161
0.28859144 -0.31955144 1.161
0.29412001 -0.31899861 1.161
0.30628288 -0.31955144 1.161
-0.55221337 -0.30171335 1.169
-0.31730002 -0.30171335 1.169
-0.27350891 -0.30171335 1.169
-0.26410925 -0.3022252 1.1672858
-0.25503239 -0.30211148 1.1676668
-0.24572906 -0.30216122 1.1675
-0.2353889 -0.30211145 1.1676667
-0.2243498 -0.30374032 1.1670001
-0.21521378 -0.30348268 1.1664546
-0.20554231 -0.30220649 1.1666001
-0.19594546 -0.30224615 1.1661429
-0.18507844 -0.3043519 1.1667778
-0.17502065 -0.30471483 1.1672221
-0.16480976 -0.30527312 1.1662308
-0.15519282 -0.30484667 1.1631819
-0.1447109 -0.30460632 1.1624287
-0.13509694 -0.30505991 1.1634617
-0.12520592 -0.30581111 1.1634002
-0.115735 -0.30637956 1.1613638
-0.10416789 -0.30727252 1.1624546
-0.095605612 -0.30749241 1.1627778
-0.084607445 -0.30634803 1.1618
-0.075578503 -0.30595475 1.162143
-0.065586269 -0.3065927 1.1615715
-0.055285722 -0.3073886 1.1610001
-0.045334291 -0.3073886 1.1610001
-0.035540819 -0.30754656 1.1610001
-0.026379187 -0.30786249 1.1610001
-0.015480001 -0.3084943 1.161
-0.0044228579 -0.3084943 1.161
0.0047914293 -0.30812573 1.1610001
0.015480001 -0.3084943 1.161
0.02543143 -0.3084943 1.1610001
0.034741528 -0.30826458 1.1618
0.042017147 -0.3084943 1.161
-0.6401667 -0.29058 1.169
-0.6357134 -0.29058 1.169
-0.6023134 -0.29058 1.169
-0.59340674 -0.29058 1.169
-0.58375788 -0.29058 1.169
-0.57448006 -0.29169333 1.169
-0.56316113 -0.29410556 1.1689999
-0.55463654 -0.29581922 1.169
-0.54498619 -0.29558957 1.1676667
-0.53549135 -0.29464746 1.1674615
-0.52637339 -0.29210162 1.1676667
-0.51413739 -0.29102537 1.169
-0.5061956 -0.29206449 1.1690001
-0.49543336 -0.29169333 1.169
-0.48875338 -0.29058 1.169
-0.47502229 -0.29280671 1.1690001
-0.46489382 -0.29424483 1.1673334
-0.45614365 -0.29384586 1.1672223
-0.44540688 -0.29306781 1.1668183
-0.43664938 -0.29236138 1.169
-0.42481625 -0.29280668 1.1690001
-0.4152945 -0.29370978 1.1676667
-0.40441924 -0.29272723 1.1661429
-0.39602685 -0.29418728 1.1673999
-0.38559622 -0.2923429 1.1656668
-0.37454957 -0.29341909 1.1670001
-0.36468083 -0.29378715 1.1664546
-0.35486385 -0.29545468 1.1654707
-0.34566224 -0.29444697 1.1653079
-0.3347365 -0.29427749 1.1653079
-0.32495987 -0.29519227 1.1654706
-0.31486222 -0.29491535 1.1641113
-0.30556238 -0.29446915 1.1650002
-0.29491618 -0.29478422 1.1652502
-0.28553572 -0.2944302 1.1666001
-0.27486742 -0.2948226 1.1637503
-0.26526299 -0.2949329 1.1632226
-0.2554158 -0.29444018 1.1632224
-0.24532202 -0.29493296 1.1632224
-0.23541282 -0.29441574 1.1624119
-0.22520876 -0.29603416 1.1620002
-0.21495803 -0.29681388 1.1614445
-0.20495038 -0.29630938 1.162091
-0.19394231 -0.29787946 1.1610001
-0.18548357 -0.2988193 1.1610001
-0.17580859 -0.29964858 1.161
-0.16585715 -0.29964858 1.161
-0.13505512 -0.29838496 1.1610001
-0.12642002 -0.29854289 1.1610001
-0.6646381 -0.28119144 1.1670001
-0.65352672 -0.28167334 1.169
-0.64285129 -0.28443128 1.1666001
-0.63432288 -0.28512952 1.1655716
-0.62589818 -0.28207579 1.1667143
-0.61424643 -0.28341684 1.1670001
-0.60364151 -0.28513047 1.1656154
-0.59511322 -0.28534499 1.1658001
-0.58486569 -0.28522944 1.1647499
-0.57458687 -0.28517321 1.1643333
-0.56481582 -0.28601432 1.1640003
-0.5545454 -0.28558466 1.1630001
-0.54531658 -0.28724515 1.1630001
-0.53504068 -0.28671151 1.1623335
-0.52531064 -0.28612155 1.16275
-0.51526004 -0.28539559 1.166
-0.50513911 -0.28601432 1.164
-0.49516833 -0.28691372 1.163154
-0.48596263 -0.28645295 1.1638572
-0.47335353 -0.28632882 1.1627779
-0.46589294 -0.28597334 1.1623334
-0.45528799 -0.28782955 1.161889
-0.44362932 -0.28821078 1.1632859
-0.43455812 -0.28601241 1.164
-0.42443928 -0.28643259 1.1630001
-0.4146277 -0.28769431 1.1623334
-0.40469348 -0.28805053 1.1627779
-0.39454997 -0.28758386 1.1618891
-0.38504559 -0.28708005 1.1623335
-0.37449008 -0.28747335 1.1614445
-0.36488572 -0.28859144 1.161
-0.35548717 -0.28776214 1.1610001
-0.34756288 -0.28785431 1.161
-0.32508001 -0.28859144 1.161
-0.31734002 -0.28859144 1.161
-0.30628288 -0.28785431 1.161
-0.29670003 -0.28785431 1.161
-0.25320858 -0.28859144 1.161
-0.68024671 -0.27722001 1.169
-0.67463589 -0.27563685 1.1670001
-0.66473663 -0.27564201 1.1642003
-0.6557067 -0.27690667 1.163
-0.64414173 -0.27623761 1.1627779
-0.63490129 -0.27620745 1.1610001
-0.62620288 -0.27753431 1.1610001
-0.6151458 -0.27827144 1.161
-0.60482574 -0.27974573 1.161
-0.59487432 -0.27974573 1.161
-0.58575219 -0.27891645 1.1610001
-0.5639143 -0.27974573 1.161
-0.55838573 -0.27974573 1.161
-0.51268291 -0.2790086 1.161
-0.50862861 -0.27974573 1.161
-0.48762003 -0.27974573 1.161
-0.67448574 -0.26868859 1.161
0.48985621 -0.36206764 1.177
0.49209812 -0.36206764 1.177
0.52124292 -0.36206764 1.177
0.56720197 -0.36206764 1.177
0.57558179 -0.36259529 1.1758002
0.58526003 -0.36257336 1.1750001
0.59504968 -0.36290303 1.1756668
0.60531431 -0.36206764 1.177
0.61543149 -0.36316672 1.1762002
0.6254915 -0.36206764 1.177
0.42708287 -0.35085815 1.177
0.43829241 -0.35310003 1.177
0.44501811 -0.35310003 1.177
0.45488253 -0.35354844 1.177
0.46444798 -0.35160542 1.177
0.4764916 -0.35228807 1.1764287
0.48499617 -0.35554361 1.1741766
0.49530795 -0.35543361 1.1743335
0.50447476 -0.35514861 1.1745002
0.51441842 -0.35694927 1.1738573
0.52597618 -0.35666296 1.1747779
0.53500456 -0.35539266 1.1755714
0.5435074 -0.35482767 1.1752858
0.55574524 -0.35508478 1.1761431
0.56460452 -0.35648984 1.1748669
0.57413763 -0.35890859 1.174
0.58873433 -0.35860288 1.1730001
0.59655428 -0.35720643 1.1730002
0.60549152 -0.35860288 1.1730001
0.61442858 -0.35860288 1.1730001
0.62472349 -0.35612458 1.1751335
0.24773049 -0.34189048 1.177
0.25781906 -0.34189048 1.177
0.26342383 -0.34189048 1.177
0.29817337 -0.34189048 1.177
0.31947145 -0.34189048 1.177
0.32843906 -0.34189048 1.177
0.33479115 -0.34226415 1.177
0.35572499 -0.34229451 1.1755002
0.36478424 -0.34286842 1.1742002
0.37429211 -0.34298036 1.1743335
0.38634887 -0.34385175 1.1743335
0.39502192 -0.3446686 1.1750001
0.40355557 -0.34570277 1.1747144
0.41530347 -0.34769392 1.1754001
0.42451432 -0.34631431 1.1730002
0.43345147 -0.34787831 1.1730002
0.44536766 -0.348921 1.1730002
0.45499638 -0.34870821 1.1730002
0.46406117 -0.34787831 1.1730002
0.47366861 -0.34854859 1.1730001
0.56862575 -0.34743145 1.1730001
-0.05380572 -0.33068097 1.177
0.058663182 -0.33142829 1.177
0.065175377 -0.33164182 1.177
0.075103819 -0.33068097 1.177
0.084818736 -0.33142829 1.177
0.093039051 -0.33180192 1.177
0.10574319 -0.33068097 1.177
0.11545809 -0.33202612 1.177
0.12554668 -0.33236241 1.177
0.1345143 -0.33292288 1.177
0.14460286 -0.33180192 1.177
0.15506509 -0.33068097 1.177
0.16543145 -0.33273432 1.1763334
0.17545192 -0.33394307 1.1746669
0.18547373 -0.33582574 1.1746001
0.19529429 -0.33431241 1.1740003
0.20397322 -0.33388072 1.1758573
0.21467145 -0.33207431 1.174
0.22369868 -0.33418956 1.1735716
0.23561399 -0.33738959 1.1743335
0.24481812 -0.33872518 1.1738001
0.25556123 -0.3380315 1.1747144
0.2646538 -0.33795434 1.1750002
0.27556521 -0.33802173 1.1756668
0.28522861 -0.33493486 1.1754001
0.2945556 -0.3360098 1.1744119
0.30440834 -0.33560795 1.1754003
0.31509832 -0.33637035 1.1753335
0.3253341 -0.33577177 1.173889
0.33552384 -0.33664483 1.1743336
0.34564218 -0.33628011 1.1759093
0.35331622 -0.33710718 1.1740001
-0.14684477 -0.32171339 1.177
-0.13339335 -0.32171339 1.177
-0.12479936 -0.32246065 1.177
-0.11545811 -0.32171336 1.177
-0.10528001 -0.322561 1.1760001
-0.09493532 -0.32336479 1.1748463
-0.085046351 -0.32340735 1.1750002
-0.074855089 -0.32312149 1.1760001
-0.064585313 -0.32404751 1.1750002
-0.054852005 -0.32463774 1.1754001
-0.044787303 -0.32359084 1.1756668
-0.034859627 -0.3237403 1.1756669
-0.024370918 -0.32387906 1.1754616
-0.014234424 -0.32564387 1.1755717
-0.0043763639 -0.32335392 1.1755456
0.0045591942 -0.32457215 1.1742309
0.014139135 -0.3247807 1.1748184
0.02461905 -0.32676381 1.1750002
0.034700319 -0.32555097 1.1753335
0.045209151 -0.32519755 1.1750001
0.053993575 -0.32704309 1.1750001
0.063677154 -0.3273229 1.1730001
0.074848577 -0.32695049 1.1730002
0.084902853 -0.32844001 1.1730001
0.096819058 -0.32844004 1.1730002
0.10568172 -0.32732287 1.1730002
0.11450715 -0.32816073 1.1730002
0.12512001 -0.3289986 1.1730001
0.13554668 -0.32918477 1.1730002
0.14474982 -0.32828042 1.1730002
0.1554143 -0.32704332 1.1740001
0.16556059 -0.32866344 1.1730002
0.17539144 -0.32955715 1.1730001
0.29455334 -0.32955715 1.1730001
0.30162859 -0.32955715 1.1730001
-0.29032668 -0.31050384 1.177
-0.27239144 -0.31050384 1.177
-0.26230288 -0.31050384 1.177
-0.25445622 -0.3110643 1.177
-0.2454886 -0.31114441 1.177
-0.23540002 -0.31218523 1.177
-0.22530684 -0.31416148 1.1760001
-0.21597168 -0.31401408 1.1765001
-0.20563251 -0.31324396 1.177
-0.19504574 -0.31274572 1.177
-0.1848121 -0.31474239 1.1760771
-0.17506969 -0.31440639 1.1754618
-0.16529636 -0.31483307 1.1757694
-0.15491891 -0.31664538 1.1754616
-0.14502691 -0.31682381 1.1748463
-0.13535716 -0.31725597 1.1746002
-0.12528048 -0.31767571 1.1745002
-0.11590358 -0.31754789 1.1730002
-0.10501143 -0.31838575 1.1730001
-0.075593345 -0.31838578 1.1730001
-0.03016286 -0.31838575 1.1730001
-0.57224625 -0.30209666 1.177
-0.56427938 -0.30298457 1.1750001
-0.55598062 -0.30461678 1.1752859
-0.54457545 -0.30240235 1.1741431
-0.53754848 -0.30157468 1.1754001
-0.52348483 -0.3015362 1.177
-0.51387668 -0.30217677 1.177
-0.50442863 -0.30228353 1.177
-0.49546099 -0.3015362 1.177
-0.48985621 -0.3015362 1.177
-0.47505966 -0.30198458 1.177
-0.46583647 -0.30224884 1.1765001
-0.4528648 -0.3015362 1.177
-0.44384241 -0.30203038 1.1764287
-0.43492955 -0.30265713 1.177
-0.42484102 -0.30265719 1.177
-0.41587335 -0.3015362 1.177
-0.40466386 -0.3015362 1.177
-0.3945753 -0.3015362 1.177
-0.37103525 -0.3015362 1.177
-0.3655118 -0.30379492 1.1762729
-0.35597226 -0.30538827 1.1760001
-0.34457269 -0.30144483 1.1741431
-0.33481869 -0.30304077 1.1750001
-0.32542849 -0.30530235 1.1742309
-0.31449968 -0.30554867 1.175182
-0.30455369 -0.30343652 1.1756668
-0.29477188 -0.30533105 1.1755717
-0.28501526 -0.30404001 1.1747502
-0.27471507 -0.30630594 1.1752223
-0.2646175 -0.30716798 1.1756668
-0.25499812 -0.30681872 1.1743335
-0.24441969 -0.30701655 1.1736668
-0.23480001 -0.30691764 1.1740001
-0.22622144 -0.30889004 1.1730001
-0.21382116 -0.30900174 1.1730002
-0.20603307 -0.30817187 1.1730002
-0.19550002 -0.30805215 1.1730002
-0.18544574 -0.3094486 1.1730001
-0.17539144 -0.3094486 1.1730002
-0.68415469 -0.29107401 1.177
-0.65276802 -0.29406321 1.177
-0.64568859 -0.29375193 1.1750001
-0.63445908 -0.29144764 1.177
-0.6254915 -0.29032668 1.177
-0.61607146 -0.29527953 1.1767647
-0.60554981 -0.29342356 1.1752859
-0.59665143 -0.29496646 1.1765001
-0.58610725 -0.29540822 1.1758001
-0.57569534 -0.29679415 1.1742002
-0.56750858 -0.29827717 1.1730001
-0.5318467 -0.29895526 1.1756668
-0.52491319 -0.29679936 1.175182
-0.51565421 -0.29594925 1.173308
-0.50516331 -0.29728717 1.1735002
-0.49579036 -0.29658231 1.1751335
-0.48593992 -0.2961027 1.1760001
-0.47597569 -0.29714575 1.1735716
-0.46071145 -0.29929429 1.177
-0.45510671 -0.29929429 1.177
-0.44538477 -0.29878572 1.1750001
-0.4340069 -0.29648334 1.1740003
-0.42605543 -0.29844061 1.1754001
-0.41530648 -0.29888746 1.1754001
-0.40686345 -0.29738349 1.1730002
-0.39435145 -0.29771858 1.1730001
-0.38495052 -0.29789203 1.1750002
-0.3742429 -0.2982772 1.1730001
-0.36754003 -0.29827717 1.1730001
-0.68288434 -0.28472191 1.177
-0.67546237 -0.28456056 1.1754001
-0.66304219 -0.2857224 1.1765001
-0.65575886 -0.28556749 1.1758573
-0.6479429 -0.28934002 1.1730001
-0.63190067 -0.28817686 1.1743335
-0.62442863 -0.2864781 1.1750001
-0.61442864 -0.28878146 1.1730001
-0.68490195 -0.27687526 1.177
-0.65576291 -0.27816859 1.1730001
0.5967648 -0.38161242 1.189
0.60582387 -0.38161242 1.189
0.45861432 -0.37028861 1.189
0.46427619 -0.37028861 1.189
0.48465908 -0.37085479 1.189
0.4951033 -0.37233976 1.1872859
0.50539219 -0.37374976 1.1865
0.51482165 -0.37172982 1.1890001
0.52612227 -0.37171656 1.1863334
0.53512657 -0.37369794 1.1860911
0.54428989 -0.37429461 1.1873335
0.55562162 -0.37330827 1.1890001
0.56573373 -0.37400088 1.18775
0.57546961 -0.37415648 1.1875455
0.58513993 -0.37414971 1.1868665
0.59492749 -0.3741498 1.1839999
0.60447848 -0.37494919 1.1850002
0.61488891 -0.37399113 1.1859412
0.62468028 -0.37283811 1.1845001
0.63306671 -0.37305906 1.187
0.38614193 -0.36122954 1.189
0.39586437 -0.36254454 1.1879091
0.40602255 -0.36234534 1.1882001
0.41218668 -0.36236191 1.189
0.42541331 -0.36149192 1.1880001
0.43480989 -0.36219931 1.1872222
0.44450212 -0.36220655 1.1870002
0.45540187 -0.36430913 1.1865387
0.46453643 -0.36407006 1.1853335
0.47538802 -0.36328584 1.186
0.48493117 -0.36539569 1.1841429
0.49488971 -0.36652464 1.1823334
0.50478083 -0.36454371 1.1827501
0.51475781 -0.36479011 1.1831819
0.52546167 -0.36593038 1.1822308
0.53564763 -0.36520475 1.1830001
0.54476476 -0.36554328 1.1831177
0.55481136 -0.36485183 1.18375
0.56438255 -0.36611906 1.1828463
0.5737893 -0.36715448 1.1810002
0.58487618 -0.36779717 1.1810001
0.59499913 -0.36779717 1.1810001
0.60512197 -0.36667246 1.1810002
0.61358523 -0.36751038 1.182143
0.62584966 -0.36683309 1.1810002
0.63099146 -0.3666724 1.1810001
0.15966572 -0.3521705 1.189
0.16646002 -0.35217053 1.189
0.17551906 -0.3521705 1.189
0.23553526 -0.3521705 1.189
0.2445199 -0.35312617 1.1878573
0.25478575 -0.3521705 1.189
0.26565659 -0.35262343 1.189
0.27063906 -0.3521705 1.189
0.28778574 -0.35098574 1.1850001
0.29565313 -0.35213026 1.186
0.30471432 -0.35211432 1.1850001
0.31485161 -0.35342452 1.1861429
0.32500902 -0.3531538 1.1872224
0.33552498 -0.35293695 1.187
0.34470212 -0.35375223 1.1873335
0.35466859 -0.3524124 1.1860001
0.3647337 -0.35268924 1.1856668
0.37527463 -0.35344288 1.1856668
0.38445988 -0.35509607 1.1860001
0.39452142 -0.3550742 1.1835716
0.4050878 -0.35532057 1.1838574
0.41531497 -0.35550126 1.1850002
0.42517099 -0.35603306 1.1856155
0.43489337 -0.35602859 1.1830002
0.44457889 -0.35679108 1.1818002
0.45424318 -0.35783499 1.1810002
0.46452665 -0.35677448 1.1810001
0.47464958 -0.35598716 1.1810001
0.48139811 -0.35879907 1.1810001
0.50501812 -0.35879907 1.1810001
0.54663432 -0.3576743 1.1810001
0.55225813 -0.35879907 1.1810001
-0.011323811 -0.34084669 1.189
0.035858735 -0.34235653 1.189
0.045295238 -0.34311146 1.189
0.054354291 -0.34311146 1.189
0.064545721 -0.34311149 1.189
0.07541658 -0.34311146 1.189
0.085180216 -0.34361476 1.189
0.095799439 -0.34356442 1.189
0.10581668 -0.34424019 1.1883335
0.11535762 -0.34381098 1.1875
0.1250224 -0.34367219 1.1880001
0.13553205 -0.34433347 1.1868184
0.14429678 -0.34446153 1.1874002
0.1550931 -0.34493548 1.1865
0.16526495 -0.34549037 1.1861764
0.17489411 -0.34528255 1.1847779
0.18500999 -0.34557423 1.1850002
0.1949698 -0.34510878 1.1847894
0.20519181 -0.3457112 1.1862501
0.21471545 -0.34507853 1.1847647
0.22454317 -0.34528387 1.1847779
0.23468393 -0.34519783 1.1839999
0.24445373 -0.34619072 1.1828461
0.25436047 -0.34614715 1.1831819
0.2649681 -0.34656429 1.1839093
0.27500743 -0.34674034 1.1853079
0.28520396 -0.34495857 1.1836666
0.2940194 -0.34577495 1.1813334
0.30541036 -0.34515196 1.1810001
0.31485114 -0.34455907 1.1815333
0.3253938 -0.34601021 1.1822307
0.33533975 -0.34658739 1.1810002
0.34601566 -0.34475213 1.182
0.35487834 -0.34756452 1.182
0.36554766 -0.3486762 1.1810001
0.37426457 -0.34839505 1.1810001
0.38444364 -0.34890115 1.1810001
0.39479148 -0.34980097 1.1810001
0.40453941 -0.349801 1.1810001
0.41166288 -0.34980097 1.1810001
-0.18004858 -0.33178765 1.189
-0.17778382 -0.33178765 1.189
-0.15173906 -0.33178765 1.189
-0.14532223 -0.33178765 1.189
-0.13436505 -0.33227527 1.1884286
-0.12490612 -0.33134764 1.1858
-0.11610229 -0.33201739 1.1882001
-0.10517048 -0.33247355 1.1874001
-0.094960012 -0.33462286 1.187
-0.084231876 -0.33527544 1.1865386
-0.074863121 -0.33529124 1.1860911
-0.065631643 -0.33468646 1.185889
-0.055942729 -0.33518794 1.1850001
-0.045142867 -0.33519083 1.1850002
-0.035284493 -0.33478695 1.1841429
-0.024774764 -0.33335382 1.1825002
-0.014324219 -0.33446321 1.1830001
-0.0045111114 -0.33499974 1.1843336
0.0042116889 -0.33529192 1.1860911
0.015011022 -0.3354314 1.1864288
0.025121126 -0.33477902 1.1842729
0.035179801 -0.33572128 1.1835262
0.04507548 -0.33582124 1.18325
0.054538209 -0.33618048 1.1828824
0.065209426 -0.33756325 1.1827779
0.074923664 -0.33650035 1.1830001
0.084898107 -0.33715826 1.1833334
0.094961308 -0.33713239 1.1831819
0.10491593 -0.33663353 1.1827143
0.1150234 -0.33756331 1.1827779
0.12449699 -0.33743891 1.1830001
0.13519999 -0.33800191 1.1830001
0.14555499 -0.33679217 1.182143
0.15517136 -0.33604598 1.1813078
0.1647204 -0.3373183 1.1814001
0.17546287 -0.33855337 1.1810001
0.20628133 -0.33765361 1.1810001
0.21482955 -0.33742857 1.1810001
0.22382763 -0.33855337 1.1810001
0.28231525 -0.33855337 1.1810001
-0.51070386 -0.32046384 1.189
-0.37255335 -0.32046384 1.189
-0.36462671 -0.32046384 1.189
-0.33405241 -0.32046384 1.189
-0.32499334 -0.32046387 1.189
-0.31480193 -0.32046384 1.189
-0.30461049 -0.32046387 1.189
-0.28573748 -0.3227286 1.189
-0.27592355 -0.32046384 1.189
-0.26520365 -0.32136974 1.189
-0.25818288 -0.32159621 1.189
-0.24305241 -0.32331812 1.1870002
-0.2344856 -0.32292372 1.1861429
-0.22652616 -0.32307881 1.1867144
-0.21451859 -0.32291001 1.1855
-0.20546064 -0.32399493 1.1853335
-0.1950646 -0.32361203 1.1839336
-0.1843648 -0.32476053 1.184
-0.17515786 -0.32441649 1.18275
-0.16552445 -0.32417071 1.1832223
-0.15514705 -0.32599673 1.1837692
-0.14420441 -0.32576758 1.1820911
-0.13534637 -0.32580605 1.1810001
-0.12512977 -0.32646218 1.1810001
-0.11472573 -0.32618099 1.1810001
-0.10460287 -0.32730576 1.1810001
-0.094480008 -0.32955527 1.1810001
-0.085481912 -0.32955527 1.1810001
-0.075640246 -0.32871172 1.1810001
-0.06748572 -0.32955527 1.1810001
-0.04499048 -0.32955527 1.1810001
-0.034417719 -0.32910538 1.1810001
-0.025869526 -0.32955527 1.1810001
-0.019120954 -0.32955527 1.1810001
-0.0047240006 -0.32910538 1.1810001
0.007873334 -0.32955527 1.1810001
0.015746668 -0.32955527 1.1810001
0.037117146 -0.32955527 1.1810001
0.042740956 -0.32955527 1.1810001
-0.65115243 -0.31088096 1.187
-0.62402481 -0.31088096 1.187
-0.6177572 -0.31114289 1.1880001
-0.60242671 -0.31140479 1.189
-0.59413242 -0.31061906 1.1860001
-0.58460003 -0.31035715 1.1850001
-0.57560331 -0.31098577 1.1874001
-0.56521082 -0.31160292 1.1872859
-0.5537343 -0.31140479 1.189
-0.5437218 -0.31266618 1.1873335
-0.53448385 -0.31140479 1.189
-0.52372628 -0.31197098 1.189
-0.51509732 -0.3139438 1.1866002
-0.50594956 -0.31536433 1.1868463
-0.49571097 -0.31172928 1.1870002
-0.48473883 -0.31325549 1.1885
-0.47565031 -0.31309599 1.1868184
-0.4661366 -0.31143871 1.1874001
-0.45446229 -0.31215972 1.1890001
-0.44433674 -0.31350905 1.1876668
-0.43543196 -0.31555057 1.1875457
-0.42494804 -0.31470552 1.1860669
-0.41425952 -0.31194845 1.1861429
-0.4052617 -0.3118293 1.1867779
-0.39542744 -0.31321657 1.189
-0.38445991 -0.31330422 1.1860001
-0.37454388 -0.31529328 1.1859233
-0.36443454 -0.31479263 1.1846924
-0.35524318 -0.31494126 1.1866668
-0.34464154 -0.31319264 1.1871818
-0.33539352 -0.31506678 1.1857275
-0.32504833 -0.31395379 1.1821431
-0.31465533 -0.31466046 1.1842
-0.30471623 -0.3148753 1.1850001
-0.29486504 -0.31546971 1.1830001
-0.28473142 -0.31520808 1.1826841
-0.27564308 -0.31550744 1.1845556
-0.26570955 -0.31482196 1.1817274
-0.25617033 -0.31573796 1.182091
-0.2454484 -0.31638083 1.1822
-0.23668206 -0.31734359 1.1810002
-0.22532731 -0.31830764 1.1810001
-0.2134798 -0.31785774 1.1810001
-0.20395684 -0.31755781 1.1810002
-0.19522654 -0.31766495 1.1810002
-0.69188488 -0.30687526 1.189
-0.68958861 -0.30183715 1.187
-0.67263436 -0.30008098 1.189
-0.66358614 -0.30238414 1.1876668
-0.65342981 -0.30507252 1.1858889
-0.64663619 -0.30478469 1.1864548
-0.63534641 -0.30393115 1.1863335
-0.62520391 -0.30344066 1.1828182
-0.61461014 -0.30500123 1.1825999
-0.60536218 -0.30494836 1.1858889
-0.5948981 -0.30380687 1.1827143
-0.58510125 -0.3039107 1.1810001
-0.57600313 -0.3058103 1.1810001
-0.56800479 -0.30706003 1.1810001
-0.55206859 -0.30758002 1.1830001
-0.54396641 -0.30810004 1.1850002
-0.5343045 -0.30596918 1.1846
-0.52494597 -0.30625284 1.1836668
-0.51491606 -0.30616024 1.1810001
-0.5044558 -0.30724746 1.181
-0.494836 -0.30648917 1.1814001
-0.4855302 -0.30528876 1.1828463
-0.47493073 -0.30706003 1.1810001
-0.4639751 -0.30676651 1.1842002
-0.45463187 -0.30613726 1.1832222
-0.4456307 -0.30616021 1.1810001
-0.43478298 -0.30805981 1.1810001
-0.42516005 -0.30818477 1.1810001
-0.41535851 -0.30593526 1.1810001
-0.40443969 -0.3061758 1.1814446
-0.39455721 -0.30600458 1.1830001
-0.38463688 -0.30530298 1.1822308
-0.37502781 -0.30609596 1.1810001
-0.36554766 -0.30930954 1.1810001
-0.35280037 -0.30855972 1.1810001
-0.34670788 -0.30677885 1.1810001
-0.33675379 -0.30840975 1.1810001
-0.31268382 -0.30930954 1.1810001
-0.30481049 -0.30930954 1.1810001
-0.2868143 -0.30930954 1.1810001
-0.27781621 -0.30930954 1.1810001
-0.68408358 -0.29487288 1.184
-0.67488927 -0.29354954 1.1870002
-0.66369724 -0.2943891 1.1822309
-0.65601736 -0.29553121 1.1810001
-0.64446819 -0.29718763 1.1820002
-0.63464671 -0.29629153 1.182091
-0.62649238 -0.2958124 1.1810001
-0.61187053 -0.29806194 1.1810001
-0.60624671 -0.29806194 1.1810001
-0.59499907 -0.29806194 1.1810001
-0.68273056 -0.28906384 1.1810001
-0.67485726 -0.28850144 1.1810001
-0.66810858 -0.28793907 1.1810001
-0.65648603 -0.28531462 1.1810001
0.50787717 -0.38062385 1.1930001
0.51604003 -0.38266003 1.197
0.52440006 -0.38190001 1.197
0.53551644 -0.38167885 1.1952858
0.54462659 -0.38265598 1.1952858
0.55608845 -0.38425723 1.1966926
0.56521851 -0.38487715 1.1958237
0.57408011 -0.38443005 1.1960001
0.58568352 -0.38223466 1.1956669
0.59522188 -0.38410813 1.1950002
0.60453093 -0.38457853 1.1954001
0.61553121 -0.38204408 1.193
0.62399274 -0.38358736 1.1963334
0.40698007 -0.37180293 1.197
0.41452408 -0.37308136 1.1966366
0.42471334 -0.3715134 1.1970001
0.43554959 -0.37242416 1.1958573
0.4445301 -0.37344289 1.1962001
0.45504746 -0.37417799 1.1960001
0.46479699 -0.37489089 1.1950001
0.47644404 -0.37521201 1.1970003
0.48510522 -0.37647665 1.1952858
0.49465355 -0.37799984 1.1962
0.50333244 -0.37721527 1.1930001
0.51583052 -0.37721527 1.1930001
0.52534288 -0.37762156 1.1950001
0.53135848 -0.37759399 1.1930001
0.55477017 -0.37780544 1.1936667
0.56286883 -0.37744251 1.1930001
0.57604861 -0.37835145 1.1930001
0.62717718 -0.37835145 1.1930001
0.63506097 -0.37898573 1.1950001
0.16872001 -0.36138001 1.197
0.18810001 -0.36138001 1.197
0.23598002 -0.36138004 1.197
0.24510002 -0.36138001 1.197
0.25536001 -0.36138001 1.197
0.26584953 -0.36307818 1.1963334
0.27428421 -0.36430129 1.1964289
0.28500003 -0.36138001 1.197
0.29586801 -0.36381206 1.1970003
0.30514002 -0.36290005 1.1970001
0.31595284 -0.36185893 1.1964287
0.32554024 -0.36280632 1.1955454
0.33554274 -0.36212504 1.1961111
0.34558091 -0.36365041 1.1964289
0.35578805 -0.36308327 1.1966002
0.36511096 -0.36345282 1.1970001
0.37486371 -0.36315215 1.1958574
0.38505369 -0.36495113 1.1950001
0.39368328 -0.36727336 1.1954001
0.40562004 -0.36698955 1.1930001
0.41602936 -0.36574811 1.1938889
0.42507765 -0.36675268 1.1950001
0.4360131 -0.36812577 1.193
0.44554904 -0.3682881 1.1930001
0.45220384 -0.36812574 1.1930001
0.46924669 -0.36926192 1.1930001
0.47492766 -0.36926192 1.1930001
-0.069540001 -0.35226002 1.197
-0.010260001 -0.35226002 1.197
0.085500002 -0.35283002 1.197
0.094620012 -0.35226002 1.197
0.10452953 -0.35108289 1.1930001
0.11502687 -0.35304686 1.1957999
0.12578 -0.35378006 1.1970001
0.1354142 -0.35390919 1.194867
0.14518841 -0.35419434 1.1966001
0.15486732 -0.35414764 1.1956667
0.16519734 -0.35678938 1.1946001
0.17561537 -0.35590681 1.1947778
0.18478398 -0.35590884 1.1955717
0.19449447 -0.35597467 1.1955454
0.20499392 -0.35532537 1.1958002
0.21455336 -0.3548952 1.1947778
0.22515361 -0.35523576 1.1955001
0.23467374 -0.3562254 1.1950001
0.24441493 -0.35734257 1.1936667
0.25493336 -0.35736385 1.1949999
0.26422742 -0.35689011 1.193
0.27535284 -0.35594329 1.1933635
0.28507072 -0.35636377 1.1954616
0.29436833 -0.35776508 1.1947143
0.30449909 -0.35790002 1.1930001
0.31018001 -0.35790002 1.1930001
0.3260867 -0.35790002 1.1930001
0.33404005 -0.35790002 1.1930001
0.34881049 -0.35790002 1.1930001
0.35449147 -0.35790002 1.1930001
0.36471719 -0.3575213 1.1930001
0.3749429 -0.35790002 1.1930001
-0.18354002 -0.34086001 1.197
-0.17784001 -0.34086001 1.197
-0.16302001 -0.34086001 1.197
-0.15846001 -0.34086001 1.197
-0.14193001 -0.34143001 1.197
-0.13528001 -0.34162003 1.197
-0.12464001 -0.34162003 1.197
-0.11514 -0.34200007 1.1970001
-0.10564001 -0.34238005 1.197
-0.095021278 -0.34402448 1.1956667
-0.084361233 -0.34492606 1.1947144
-0.075114295 -0.34598482 1.1950002
-0.065480247 -0.34548828 1.19575
-0.055564344 -0.34465858 1.1961113
-0.045658942 -0.34415045 1.1952225
-0.03494681 -0.34460038 1.1947145
-0.02515316 -0.34479585 1.1955458
-0.015331822 -0.34621942 1.1951178
-0.0048653679 -0.34479585 1.1955458
0.0046862434 -0.34453264 1.1965557
0.015010001 -0.34485006 1.1970003
0.025057144 -0.34399337 1.196
0.036072064 -0.34744272 1.1961113
0.044840004 -0.34846005 1.197
0.054720007 -0.34770003 1.197
0.064419053 -0.34711179 1.1936667
0.075074933 -0.3473067 1.1943334
0.084318787 -0.34849539 1.1941429
0.094953075 -0.34783661 1.1930001
0.10339334 -0.3482424 1.1930001
0.11589144 -0.34881049 1.1930001
0.12529278 -0.3485899 1.1938
0.1329343 -0.34881052 1.1930001
0.14770478 -0.34881049 1.1930001
-0.33402002 -0.33174002 1.197
-0.32946002 -0.33174002 1.197
-0.29526001 -0.33174002 1.197
-0.26334003 -0.33310804 1.197
-0.254904 -0.33356401 1.1970001
-0.24477431 -0.33239147 1.197
-0.2347424 -0.33274147 1.1964999
-0.22483335 -0.33275333 1.1970001
-0.21414289 -0.33260289 1.196
-0.20453945 -0.33323151 1.1958002
-0.19507854 -0.33419189 1.1958575
